1652493764.5845454 2.531395356930762 -42.83641365082315 0.3643186526491738
1652493764.9845014 3.057131596282409 -42.55668975058217 0.3792006763370153
1652493765.3845046 3.6356035823272057 -42.31648337665825 0.394117329813435
1652493765.7844768 4.217644348103495 -42.10703728298038 0.40316853171057265
1652493766.1845021 4.829480300711637 -41.933116607641516 0.4080018962267751
1652493766.9844656 5.960431803891219 -41.694687072244164 0.42193341986695027
1652493767.384477 6.540556752992781 -41.62591975755559 0.4454275093248288
1652493767.784488 7.165638575925867 -41.582054156276506 0.46772682687029515
1652493768.1845167 7.809846784067144 -41.56680433347035 0.4784162537165564
1652493768.1845167 7.809846784067144 -41.56680433347035 0.4784162537165564
1652493768.9844809 9.027255473839464 -41.555849534340894 0.4773185853757784
1652493769.3844962 9.586957072562585 -41.53663475839078 0.4789184351985084
1652493769.7845182 9.99232327392564 -41.505308392963414 0.4798184217584572
1652493770.1845047 10.302219556616361 -41.431189351553336 0.48041229327546875
1652493770.9844866 11.119737555914877 -41.10017567283875 0.46723210197589604
1652493771.7845123 12.051224441407228 -40.53423043033629 0.45852094644361624
1652493772.5845344 12.86387179364511 -39.850614922455854 0.46403640862345785
1652493772.5845344 12.86387179364511 -39.850614922455854 0.46403640862345785
1652493772.9846585 13.19210021421751 -39.44690300977764 0.463582786802781
1652493773.3847408 13.472502648680534 -39.02999940198004 0.4651938681635836
1652493774.1847126 13.81776480371484 -38.105951557122 0.45781536709570525
1652493774.584744 13.872302063503414 -37.6035387678007 0.46221653800700374
1652493775.3847084 13.77545941913833 -36.51282246775042 0.46196403531852565
1652493775.7847044 13.68979504939831 -35.95340533116638 0.4715277174173179
1652493776.1848776 13.592350354734002 -35.475558430694036 0.4752263771436181
1652493776.9848733 13.583385279677392 -35.408998772847404 0.47546410233321507
1652493777.3848717 13.581313223030559 -35.41144998407975 0.47495053321937575
1652493777.3848717 13.581313223030559 -35.41144998407975 0.47495053321937575
1652493777.7849183 13.579768635620562 -35.41134885146572 0.4747476957642998
1652493778.1842291 13.579802041024939 -35.41147589239456 0.4747022876893216
1652493778.5841348 13.579689686379886 -35.41164877548287 0.47460793153176484
1652493778.9853592 13.579300256463391 -35.41075970962516 0.474566613151758
1652493779.3853836 13.579864550719346 -35.41209644860144 0.4745627364898776
1652493779.7852325 13.57967812444122 -35.41186820051999 0.47455030018699024
1652493780.185232 13.579753774492833 -35.411968970708685 0.4744571335253338
1652493780.5850034 13.579707947984094 -35.41157992857741 0.47442737073706653
1652493780.98623 13.579813739715467 -35.41179590212517 0.4744660984519145
1652493781.386243 13.579682554354942 -35.411685083615644 0.4745005402185777
1652493781.7850242 13.579788349881182 -35.41206246076237 0.4744839874963183
1652493782.1862411 13.579891449986201 -35.41208839285314 0.474394237032707
1652493782.5852726 13.579799012308909 -35.411878957258324 0.47428478194610674
1652493782.5852726 13.579799012308909 -35.411878957258324 0.47428478194610674
1652493783.3853662 13.579737096138313 -35.41166758448684 0.4742457101339902
1652493783.785322 13.579585878150995 -35.41126660049923 0.47412661090407426
1652493784.1853325 13.579697090580918 -35.41177124080306 0.4740496340238063
1652493784.5854146 13.579539750772296 -35.411404205068514 0.4739702077594399
1652493784.985379 13.579685723542525 -35.411583535501435 0.4739949881910164
1652493785.3854601 13.579094188194553 -35.41011752838483 0.47403417338374143
1652493786.18549 13.57970509958475 -35.411832057957646 0.47407777273931123
1652493786.5854678 13.579558518291124 -35.411266798135486 0.4740955255191051
1652493786.9854445 13.579661042554632 -35.41168722135767 0.4741574662307186
1652493787.3853316 13.57920494598332 -35.41058770217768 0.47414436737274473
1652493787.3853316 13.57920494598332 -35.41058770217768 0.47414436737274473
1652493788.1853206 13.57950030161716 -35.411341264956015 0.47420093973522265
1652493788.5864532 13.579501710806165 -35.41151132207242 0.47425890830049455
1652493788.9864354 13.579198138177773 -35.410932656915456 0.47417456695412263
1652493789.386356 13.579309068041466 -35.41124356218746 0.4741757180251411
1652493789.386356 13.579309068041466 -35.41124356218746 0.4741757180251411
1652493789.7865748 13.579330988171145 -35.41125580075604 0.47423372094909966
1652493790.186589 13.5796202731918 -35.412055102842515 0.4742479273579233
1652493790.986452 13.460837933781061 -35.00141001935246 0.47889906492430245
1652493791.386454 13.33720839400836 -34.4182136134791 0.489466918023262
1652493791.7864964 13.186224639910428 -33.844780349297224 0.5013983362862987
1652493792.5864909 12.905761715321692 -32.684825492761135 0.517702367642508
1652493792.9864657 12.774969800844374 -32.09860768814088 0.5245850029739245
1652493793.3864822 12.66134931864845 -31.522044491489567 0.5298701144132419
1652493793.786468 12.530410000155458 -30.92175888782664 0.5338112477236195
1652493794.1864774 12.412960004193215 -30.32834281951618 0.5338051031415985
1652493794.586489 12.297785978272744 -29.72198223714687 0.5268933950360453
1652493795.386465 12.081911068896435 -28.560325504140735 0.524605648507133
1652493795.7865162 11.975612362128855 -27.974513307163175 0.5247892142659734
1652493796.1864848 11.87097175745414 -27.400779030662758 0.5265044678203677
1652493796.5864909 11.772924154796831 -26.816425770447854 0.5312483485709519
1652493796.5864909 11.772924154796831 -26.816425770447854 0.5312483485709519
1652493796.9865038 11.679038065739237 -26.247086716610124 0.5389992685928019
1652493797.386452 11.594416837531062 -25.658700417623514 0.549009576815558
1652493797.7864535 11.49944083287874 -25.065660425387215 0.5561433070610279
1652493798.1864884 11.418351194431223 -24.463592704634472 0.5589141526828827
1652493798.5864515 11.342755245446117 -23.880816453910548 0.5658023072158981
1652493798.9865046 11.258901279686597 -23.280762605465817 0.567324569108524
1652493799.3864758 11.189761409246927 -22.686207983770423 0.5711496123595646
1652493799.7864876 11.116603634202582 -22.106530325596808 0.5737217501864789
1652493800.1864789 11.037407043572676 -21.521830546414115 0.5777573753989154
1652493800.5864875 10.938621705303214 -20.956788170127776 0.5805059945595222
1652493801.3866155 10.630441826618217 -19.853996914952756 0.5842676616091265
1652493801.3866155 10.630441826618217 -19.853996914952756 0.5842676616091265
1652493801.7864764 10.41973240208727 -19.31975596266694 0.5809171941661343
1652493802.1863973 10.185418675955187 -18.819238483552482 0.5793192419550958
1652493802.5863824 9.900824356455223 -18.33561944636483 0.5736045534684306
1652493802.9863644 9.593171968424524 -17.885638617302337 0.5732200741654636
1652493803.3863635 9.228625213151298 -17.44946402693171 0.5704501169572962
1652493803.786356 8.833579538982198 -17.0330826823584 0.5621626378430125
1652493804.5863748 7.932473167191763 -16.476359741617156 0.5640898598587011
1652493804.9863548 7.439700190287427 -16.24943830011106 0.5629980089707378
1652493805.7863727 6.36031184779224 -15.977110729380446 0.5519842755035924
1652493805.7863727 6.36031184779224 -15.977110729380446 0.5519842755035924
1652493806.1865146 5.772947709506404 -15.930615058139438 0.5447020487434499
1652493806.5867183 5.200650265630726 -15.913442807178244 0.5378767728660439
1652493806.9867098 4.622669596029175 -15.919026382927552 0.5349926761232764
1652493807.386709 4.455339616708081 -15.90783295065887 0.5337878212417113
1652493807.786729 4.469408184348348 -15.903074961889994 0.5331820031407106
1652493808.1867156 4.469468252995047 -15.902209806362833 0.5324453879330208
1652493808.586755 4.469278407528094 -15.903020788705083 0.5324767116334393
1652493808.9865975 4.469050333284245 -15.90297265574437 0.5327240679687315
1652493809.7866156 4.469095848491541 -15.902448872086978 0.5330856042074532
1652493810.586598 4.469346666344532 -15.903152419559143 0.5329376966715966
1652493810.586598 4.469346666344532 -15.903152419559143 0.5329376966715966
1652493810.9866345 4.46928642543091 -15.9028450367333 0.5330012811494842
1652493811.3866355 4.469327987296742 -15.90301114661849 0.53296815966053
1652493812.1866524 4.469718193409861 -15.904340132350526 0.5328359746400733
1652493812.9865725 4.469668146319335 -15.904133278629958 0.532915494243747
1652493812.9865725 4.469668146319335 -15.904133278629958 0.532915494243747
1652493813.386482 4.469810835082468 -15.904550837958997 0.5329043016675173
1652493813.7864752 4.4697604811721146 -15.904307405542111 0.5328376614667536
1652493814.5852394 4.4698982468020505 -15.904770746790422 0.5327422331913597
1652493814.9852242 4.469891468198926 -15.9046909960395 0.5326979260905281
1652493815.3863688 4.469998040857293 -15.904901387435707 0.5326589573560165
1652493815.7863452 4.470009689247104 -15.904868019842905 0.532626630195658
1652493816.1863763 4.469835922064978 -15.904159577517696 0.5325849355591407
1652493816.5863192 4.469952044354755 -15.904521919418107 0.532583460485605
1652493816.986323 4.46992817820664 -15.904353558348838 0.5325354737220306
1652493817.386204 4.469958529338086 -15.904357966050751 0.5324596037324298
1652493817.7862082 4.469977709093694 -15.904447309107036 0.5324238919715676
1652493818.186115 4.469979757394899 -15.90447857492297 0.5324041267572908
1652493818.186115 4.469979757394899 -15.90447857492297 0.5324041267572908
1652493818.586195 4.469935574220794 -15.904283004187631 0.5324080425000035
1652493818.9862163 4.469957063591297 -15.904349873528796 0.5324033029595744
1652493819.7873492 4.46993744596325 -15.9042311589612 0.5323888071888077
1652493820.5860207 4.4699093507967 -15.903992128373538 0.5323142052230481
1652493820.9860122 4.469647716669343 -15.90302766541122 0.5322757376785393
1652493821.3859541 4.469705029836113 -15.903167331441676 0.5322792791630235
1652493821.7860286 4.4696946865489595 -15.903201497632159 0.5322768777781752
1652493822.586023 4.469769994503578 -15.903460812443123 0.5322806608900146
1652493822.586023 4.469769994503578 -15.903460812443123 0.5322806608900146
1652493823.3859465 4.469672291725221 -15.90308441503036 0.5322369878798089
1652493823.7858553 4.469792193036494 -15.903519655012252 0.5321994101459282
1652493824.1858873 4.469812839965105 -15.903525024751538 0.5321761503462891
1652493824.5858848 4.469774750899151 -15.90333963499332 0.5321352995165213
1652493824.9871356 4.469910991758084 -15.903801359071345 0.5321007581759817
1652493825.7872243 4.4696716843043 -15.902832913497747 0.531993891825863
1652493826.185939 4.469702370929651 -15.902887432253776 0.53197043044788
1652493826.5871854 4.469725931426179 -15.902913719468458 0.5319187927942322
1652493826.988382 4.46999038473615 -15.903806670361826 0.5318966741790095
1652493827.3883824 4.470191911555087 -15.904766334824327 0.5319622037112264
1652493827.3883824 4.470191911555087 -15.904766334824327 0.5319622037112264
1652493828.1871083 4.470100037742657 -15.904549747308714 0.5320628624555267
1652493828.5871553 4.470236480773999 -15.905062065277733 0.5320675051834766
1652493828.985878 4.470175236792002 -15.904471070189206 0.5319191674115504
1652493829.3858309 4.4701885249979325 -15.904521225643672 0.5318616896519716
1652493829.7858498 4.469904498836013 -15.903542334314661 0.5318213102967079
1652493830.5858786 4.4699824418958585 -15.903921308050734 0.5319538632117845
1652493830.9858463 4.46994764346563 -15.90392984656381 0.5319909219491019
1652493831.385872 4.469893340523876 -15.903841175287063 0.5319910680259957
1652493831.7858787 4.46983083285761 -15.90371276058614 0.5320054737877226
1652493832.1858804 4.469774937404966 -15.903561836243245 0.5320158657080839
1652493832.1858804 4.469774937404966 -15.903561836243245 0.5320158657080839
1652493832.585904 4.4698441363723855 -15.903687206450426 0.5320361860807129
1652493832.985886 4.469854872163966 -15.903621827195336 0.5320363253340997
1652493833.3858721 4.46981951455837 -15.903475886099773 0.5320358959678122
1652493834.186002 4.470134662014073 -15.904539624947205 0.5320745247463663
1652493834.5872335 4.470053118709111 -15.904242783979305 0.5320023349202906
1652493834.9872506 4.469996142777997 -15.903979645498309 0.5319589066398066
1652493835.387232 4.470027726170105 -15.904219573633105 0.5319775256374546
1652493835.7860076 4.4698840791311 -15.903865766973272 0.5319551723498701
1652493836.1871903 4.470018329945903 -15.904347268291017 0.5319673983593127
1652493836.5858257 4.469915768687367 -15.903970845981538 0.5319651961075141
1652493836.9858148 4.469951994570731 -15.904105492227492 0.5319852571919782
1652493836.9858148 4.469951994570731 -15.904105492227492 0.5319852571919782
1652493837.3859718 4.469904037662889 -15.904046113978481 0.5319884434492145
1652493837.7860012 4.46988896445588 -15.90400878740499 0.5319881909233349
1652493838.1871939 4.470040782969868 -15.904505802652327 0.5320103921287656
1652493838.5858262 4.469893374056495 -15.904069553780742 0.5319986767117622
1652493838.9858282 4.470052330017604 -15.90461594344899 0.5320382986061529
1652493839.3858287 4.46996937109635 -15.904242126688944 0.53210405729557
1652493840.18707 4.469722768255031 -15.903479794015935 0.532110403153857
1652493840.585693 4.469826201132941 -15.90386507628876 0.532151027051398
1652493840.9855678 4.469883273901507 -15.904117057611316 0.5322164231092653
1652493841.7866132 4.469857321165927 -15.904071711566525 0.5322365799198648
1652493842.1866224 4.469794985620942 -15.903871016995184 0.532235510108754
1652493842.1866224 4.469794985620942 -15.903871016995184 0.532235510108754
1652493842.586636 4.469980350140842 -15.90452480335446 0.5322602866517367
1652493842.9865987 4.469986367594315 -15.90457498758914 0.5322629354970575
1652493843.3865943 4.469995343311188 -15.904572395440377 0.5322650087924198
1652493843.7866333 4.46995340993829 -15.904459639803884 0.5322598436952944
1652493844.1866171 4.4699955439323835 -15.904593250862284 0.5322612479172629
1652493844.586578 4.469652197962008 -15.903350499985834 0.5322186167514477
1652493844.9865837 4.469601544364839 -15.903178902115517 0.532181716165569
1652493845.3865771 4.469566084419814 -15.903044101683761 0.5321598401180977
1652493845.7866282 4.469615796297923 -15.903267014282886 0.5322240073065854
1652493846.1866138 4.469650910571876 -15.903412093957757 0.5322521668160187
1652493846.58658 4.469621865985571 -15.903285733597741 0.5322347586870814
1652493846.986594 4.469747749497646 -15.903708701696432 0.5322030772950181
1652493847.7865925 4.470000391952446 -15.904304544811696 0.5321521846966567
1652493848.5866528 4.470079992543251 -15.904441022104542 0.5320639818323176
1652493848.9866319 4.470313241291596 -15.905289139469774 0.5320907911042769
1652493848.9866319 4.470313241291596 -15.905289139469774 0.5320907911042769
1652493849.786637 4.470196501464881 -15.905035874095445 0.5322539180365591
1652493850.1866028 4.470232586099001 -15.9052640155238 0.5322763658665072
1652493850.5866067 4.47015858066963 -15.90499398730384 0.5322712252484123
1652493850.9865887 4.469922756542025 -15.904167384269902 0.5322442731854782
1652493851.3866107 4.469758262407394 -15.903580189323034 0.5322282325797764
1652493851.3866107 4.469758262407394 -15.903580189323034 0.5322282325797764
1652493851.786497 4.469728025749358 -15.903401636777174 0.5322276115383429
1652493852.1865125 4.469791100019047 -15.903602080251927 0.532229977336081
1652493852.5864658 4.469871141140271 -15.903901254130785 0.5322451559863276
1652493852.986355 4.46978059265527 -15.903594425427206 0.5322363926982516
1652493853.3863246 4.470209489370685 -15.905093594977904 0.5322833246822107
1652493853.786233 4.470078570555341 -15.90464312907767 0.532247436861481
1652493854.187495 4.470184755041632 -15.904988325312228 0.5322206872932126
1652493854.5862405 4.470232581821155 -15.905172880933497 0.532204783382706
1652493854.9863355 4.470236542555964 -15.905131342956986 0.532170579046671
1652493855.3863468 4.4701908990030566 -15.904957433327887 0.532160629644702
1652493856.186358 4.470335686555899 -15.905260616115877 0.5321334284845238
1652493856.186358 4.470335686555899 -15.905260616115877 0.5321334284845238
1652493856.587703 4.470258901794427 -15.904981664540875 0.5321077527587664
1652493856.9864776 4.4702769844734735 -15.905040247164672 0.5320687378932087
1652493857.386451 4.4702250016454546 -15.904785279755155 0.53204973196127
1652493857.7865362 4.470054905455209 -15.904139807234472 0.5319589429157132
1652493858.1864944 4.4701074684515225 -15.904281746281315 0.5319344920225504
1652493858.5864987 4.470102374843252 -15.904314454408622 0.5319315713842501
1652493858.9864767 4.470157042063923 -15.904435107303186 0.5319044021318429
1652493859.3864808 4.470112894320763 -15.904302010157007 0.5319045558330386
1652493859.7864883 4.470168944787671 -15.90444197028286 0.5319099075704734
1652493860.1864562 4.470281884514387 -15.904763235189534 0.5319203449921865
1652493860.5864434 4.470347997736145 -15.904890080401353 0.531922523666525
1652493861.3863473 4.470266554314588 -15.904664574115014 0.5318917245977806
1652493861.786217 4.470221327804828 -15.904418306585049 0.5318665646929961
1652493862.1873205 4.4701830104814 -15.904262797849617 0.5318663334638475
1652493862.5873628 4.470151921259548 -15.904187671714224 0.5318878574039563
1652493862.9873798 4.47014396948538 -15.904106632853054 0.5318917585351003
1652493863.3861125 4.470207322867983 -15.9043694380519 0.531891647138108
1652493863.7873425 4.470245394321766 -15.904483791438633 0.5318815190275522
1652493864.187452 4.469868281109301 -15.903250443495667 0.5318415088267802
1652493864.5861979 4.469937598778833 -15.903418428680528 0.5318296868111304
1652493864.986371 4.469819166441243 -15.903038299020595 0.531761084152255
1652493865.3863626 4.469800916994073 -15.902899528755047 0.5317132981494613
1652493865.7875834 4.469904165031794 -15.90332920499831 0.5316712383385894
1652493866.186333 4.4700838338246065 -15.903923368151155 0.531662183827795
1652493866.186333 4.4700838338246065 -15.903923368151155 0.531662183827795
1652493866.9861019 4.470153152854979 -15.904051074211417 0.5316117522694536
1652493867.3861299 4.470313462867695 -15.90463006183384 0.5315976433984112
1652493867.7873464 4.467927287810334 -15.903112003376814 0.531470093920995
1652493868.1873617 4.4410430079921275 -15.901277616228937 0.531573637140177
1652493868.5861113 4.222096675478152 -15.921413777924023 0.5377682368823481
1652493868.9861362 3.9844398860836563 -15.939296160424835 0.5398682215689001
1652493869.3873537 3.695056910163562 -15.964944659215767 0.5343974143295561
1652493869.7873392 3.389202697717048 -15.971415739781019 0.5332900353175619
1652493870.187383 3.056570300847064 -15.997182710241512 0.5330628545943421
1652493870.5873368 2.7511581155226046 -16.01443444317636 0.5288798674823304
1652493870.986146 2.443062295384734 -16.03072306992015 0.5251350124888131
1652493870.986146 2.443062295384734 -16.03072306992015 0.5251350124888131
1652493871.3884692 2.169981657694737 -16.05492751530416 0.5228347719008797
1652493871.7870972 1.9048124497532783 -16.077782437023842 0.5203561807789361
1652493872.187105 1.6179824073764288 -16.107426188892376 0.5215828903126787
1652493872.5884001 1.5832802569811029 -16.10981647312189 0.5235056897437619
1652493872.9884012 1.5850399778980424 -16.10924357563062 0.522817432073102
1652493873.3883557 1.5865204243749689 -16.10917719850533 0.5225411440058954
1652493873.7883627 1.585722466506109 -16.10945446390269 0.5223047854884082
1652493874.1883762 1.5853604459624888 -16.109296301354593 0.5220807167984429
1652493874.5884974 1.5848972384322921 -16.108795151294736 0.5218892869225266
1652493874.9872274 1.5849728828440388 -16.10955620571349 0.5217528236324586
1652493875.3872662 1.584941411798097 -16.109028593927125 0.5216872282839194
1652493875.7873917 1.5850196687767564 -16.109940842377096 0.5218405681149888
1652493876.1873646 1.584918700487267 -16.109478126492295 0.5218447022097694
1652493876.1873646 1.584918700487267 -16.109478126492295 0.5218447022097694
1652493876.9873695 1.5520840404416254 -16.114875585088285 0.5224780159149047
1652493877.3873608 1.3327955871759802 -16.144865681778533 0.5239319245688532
1652493877.7873402 1.077691638908249 -16.16595584746534 0.5204688830386106
1652493878.187324 0.7761397162487156 -16.20031370034631 0.5180220107421463
1652493878.5873263 0.25793245039184204 -16.262859599719086 0.5178221802942333
1652493878.987341 -0.016794024289531834 -16.28992584799605 0.5163468772807629
1652493879.7873187 -0.21438931090348992 -16.31775232009042 0.5057792712410883
1652493880.587394 -0.4640948014900841 -16.361130455441817 0.5032729337630116
1652493880.9873757 -0.55541653039542 -16.380715189086164 0.5037042517269926
1652493881.7863371 -1.0973419423800368 -16.57525587640321 0.5034402142217324
1652493882.1863258 -1.4391399468211952 -16.752276458947755 0.49071593710333544
1652493882.5863268 -1.7124192722544171 -16.91483028357857 0.48682949446896595
1652493882.986342 -1.9577252341024174 -17.10624133368316 0.48275443776613725
1652493883.3863776 -2.1987569358957466 -17.417946151175318 0.47968975919565265
1652493883.7863345 -2.4531484592575614 -17.79484557069157 0.4761191293973136
1652493884.187598 -2.670165632686258 -18.21941744397669 0.47396981268671295
1652493884.586321 -2.8541589069354814 -18.648770866178364 0.4695963186753801
1652493884.9875972 -2.9990403707160436 -19.048823508828434 0.47582862697403217
1652493885.386248 -3.0836698017068427 -19.482309778086343 0.4671186055185843
1652493885.386248 -3.0836698017068427 -19.482309778086343 0.4671186055185843
1652493885.7874014 -3.1529037255160723 -19.99641035447493 0.47209554698880213
1652493886.1874745 -3.1861661286284635 -20.498747242117947 0.4741322400657538
1652493886.5874422 -3.215960316231892 -20.9968807578493 0.47394196890143264
1652493886.9875164 -3.210280265813402 -21.524309414813217 0.4716449995072105
1652493887.387493 -3.199502602067593 -22.024820822583877 0.47621361975766646
1652493888.1874857 -3.1080586001593917 -22.986513047247865 0.47240532350965203
1652493888.5885782 -3.0410229440319863 -23.391191872087767 0.4736200363518952
1652493888.987318 -2.986590040745531 -23.658769296613865 0.4706299362524258
1652493889.3872259 -2.9563636416450922 -23.805490411558893 0.46748951391384413
1652493889.787192 -2.9244508552159285 -23.93448231038544 0.4685709485584849
1652493890.1871204 -2.8567809259276906 -24.141245040092475 0.4728459468430745
1652493890.5871403 -2.7195622956246144 -24.383055934768183 0.4723010131417868
1652493890.5871403 -2.7195622956246144 -24.383055934768183 0.4723010131417868
1652493890.9871387 -2.5183159893685154 -24.60118258263725 0.469419718390047
1652493891.387135 -2.254897830229561 -24.766366689240577 0.4662736361419521
1652493891.7883742 -1.97123425132807 -24.908996616982925 0.4690506676444476
1652493892.188398 -1.7240928229176582 -24.993530407113212 0.4733304881375493
1652493892.588362 -1.3031801323202505 -24.97053727854665 0.4683795980521423
1652493892.988366 -0.7165202507533474 -24.919851932682004 0.45630543139429913
1652493893.3869843 -0.21822490720467377 -24.8549863950568 0.45760848945638416
1652493894.9871197 1.6232022861958066 -24.172325793332774 0.4560290886283943
1652493895.3870769 1.9992284741974147 -23.95865092447732 0.4572109027137718
1652493895.3870769 1.9992284741974147 -23.95865092447732 0.4572109027137718
1652493895.7871037 2.344442744469838 -23.7158424942779 0.45664544267279433
1652493896.5871732 3.0349248507425752 -23.0870286379067 0.49171784286070286
1652493896.988487 3.3375457695411983 -22.693785809816607 0.5017482857903588
1652493897.3872252 3.6815759308512286 -22.261264780928222 0.5099712761559088
1652493897.7872307 4.000723491311894 -21.796626642148098 0.5240570817297087
1652493898.587254 4.67557011785292 -20.85779774257531 0.5304025166797043
1652493898.9872537 5.000175413107085 -20.422080329596763 0.5278390558803074
1652493899.3872468 5.285470957434018 -20.048591823597114 0.5251652876363413
1652493899.7872727 5.604103115168048 -19.704066887921847 0.5251015152325897
1652493900.1874797 5.934518825823605 -19.38565978608815 0.5288152625476714
1652493900.9875786 6.684349518947106 -18.8693058435853 0.5409530449675715
1652493901.787455 7.5813633441539015 -18.47525011502925 0.5618787386899778
1652493902.1874495 8.06769715727385 -18.381673143458517 0.5666365742683713
1652493902.1874495 8.06769715727385 -18.381673143458517 0.5666365742683713
1652493902.587331 8.555077346520635 -18.36575241238287 0.5676793652959233
1652493902.9873385 9.035399878200518 -18.432372141140963 0.5700729372090204
1652493903.3873298 9.47289471075283 -18.584964755114903 0.577064266546519
1652493903.7873342 9.921527647586693 -18.847613815470897 0.5789534641722002
1652493904.187325 10.403834857755344 -19.17295738860247 0.5817449861230618
1652493904.5873566 10.849651284744223 -19.53544396481622 0.5814674552420503
1652493904.987577 11.245169480549507 -19.933732361220684 0.5725361614280844
1652493905.3875778 11.588106360240635 -20.371325618806317 0.5664075216773873
1652493905.7875848 11.847551450362985 -20.84251013762881 0.5584708996899063
1652493906.1875944 12.025261172446411 -21.3228889768911 0.5541254243540746
1652493906.9888606 12.118929851479194 -22.420838859745892 0.5580418849010078
1652493907.3887146 12.127448493304327 -23.011444708142804 0.557230946962163
1652493908.188622 12.03709968800038 -24.23608844428376 0.5567668305928308
1652493908.588694 11.946128169403229 -24.803736122239997 0.552358876151539
1652493909.3884912 11.777307000342713 -25.77309286836971 0.5447186388967618
1652493909.3884912 11.777307000342713 -25.77309286836971 0.5447186388967618
1652493910.1885233 11.626499583768654 -26.667786496386682 0.5358398377688212
1652493910.5884888 11.570999016152959 -27.11080333236111 0.5338432515425963
1652493910.9885106 11.514165651774864 -27.560600484654525 0.5295543499661167
1652493911.788499 11.436680347193272 -28.462761364877 0.525607882911919
1652493912.5885155 11.388006896629529 -29.26962773644349 0.5237431655891363
1652493913.3884497 11.371842259650851 -29.550669945034535 0.5197515516640224
1652493913.78846 11.370908626788474 -29.55724555164415 0.5196937019363737
1652493914.9884849 11.37154946089991 -29.551109751770348 0.519430928155412
1652493915.3884313 11.371647600469293 -29.551479734230238 0.5194008822411896
1652493915.788353 11.37178212431554 -29.551706061823246 0.5194309953337273
1652493916.1883688 11.371574315546976 -29.551326681595484 0.5193483893307416
1652493916.1883688 11.371574315546976 -29.551326681595484 0.5193483893307416
1652493916.58834 11.371597836834004 -29.551499985399417 0.519338256449099
1652493916.9908998 11.371619767654014 -29.551523738905534 0.5193357665888719
1652493917.3883612 11.371680090657653 -29.55163064311305 0.5192492640904375
1652493917.7883642 11.371612501478213 -29.55136774875793 0.5192244558036155
1652493918.1883438 11.371755712319525 -29.55192410771338 0.5191880805076163
1652493918.5883713 11.371685883815898 -29.5517371037372 0.519162432815208
1652493919.389452 11.372292933934546 -29.55323709148324 0.5193018415665884
1652493919.7894351 11.372179699398234 -29.55301207822973 0.5193404861812234
1652493920.1881306 11.372227255843418 -29.553292170234872 0.5194350488316047
1652493920.5881324 11.372084863592454 -29.552886121891582 0.5194374353175589
1652493920.9879813 11.372116303983155 -29.552949821687932 0.519392855244223
1652493920.9879813 11.372116303983155 -29.552949821687932 0.519392855244223
1652493921.3878367 11.372009445545233 -29.552915886311187 0.519395185797455
1652493921.7889495 11.372129593218547 -29.553223964017544 0.5193568605582776
1652493922.188825 11.37213311897731 -29.552976899114228 0.5193133217780856
1652493922.5889726 11.372218485909297 -29.553256914421773 0.5191943126608761
1652493922.9888775 11.372105869805653 -29.553030736581974 0.5192856459867687
1652493923.3888595 11.371981222997844 -29.552607093900853 0.5192908525573923
1652493923.7890558 11.371784083440827 -29.55215710659801 0.5193335104703635
1652493924.1888711 11.37174704499143 -29.552150876619137 0.519279501892999
1652493924.5888662 11.371788125482677 -29.552252094007386 0.5193280288039692
1652493924.989034 11.371703296154259 -29.551855755583716 0.5193468136151094
1652493925.3889382 11.371878505812834 -29.552410794397165 0.5192946983257039
1652493925.7888129 11.371743925384626 -29.552120610087194 0.5192407375540793
1652493925.7888129 11.371743925384626 -29.552120610087194 0.5192407375540793
1652493926.1887155 11.371979584845333 -29.553079278693986 0.5192886283192324
1652493926.588727 11.379464110731446 -29.634421925599664 0.5210407336509842
1652493926.9887586 11.369249862011774 -29.86584779212384 0.5223241082477881
1652493927.3887165 11.347303736778358 -30.13885604128219 0.5210657841966876
1652493928.188703 11.30632869443108 -30.65713544856395 0.5211371045435547
1652493928.9888792 11.285950459652208 -31.318088907192845 0.5192539750328506
1652493929.788813 11.277207563654043 -31.963674341878704 0.5181586771922306
1652493930.188702 11.295842282120285 -32.324426140228475 0.5153615172678566
1652493930.5887284 11.311378269289163 -32.642053008526574 0.5110339252898918
1652493930.9888601 11.344414749413255 -32.90833684258761 0.5083811919831507
1652493931.3888478 11.426775589371948 -33.27133236622169 0.5061107144246093
1652493931.788834 11.549221117653644 -33.73540220815655 0.5013727482539279
1652493932.1888466 11.715999541174357 -34.22291818832016 0.4945587127226143
1652493932.9888384 12.147033711300937 -35.35423474519695 0.48436408613391063
1652493933.3888988 12.376128244049717 -35.904171283564196 0.47919334269507624
1652493933.7888632 12.618820377589195 -36.46046014020308 0.47410849955893664
1652493934.188886 12.882097140006943 -36.98567759477276 0.4672781959742505
1652493934.588877 13.131152793368013 -37.505459536543185 0.4654780638909855
1652493934.9888306 13.395862308949123 -38.0107414402801 0.4674842618215398
1652493935.7888744 13.963034175210188 -39.06889025596788 0.471646540826674
1652493936.1888416 14.238007537774948 -39.54297809920948 0.47277996634156166
1652493936.5888672 14.535193058179004 -40.011926113708455 0.4688050464100452
1652493936.9888656 14.852704505896702 -40.53491293960175 0.4698366755886857
1652493937.3888505 15.173388142375508 -41.01657560514342 0.466531115749547
1652493938.1889718 15.808648834145345 -41.97610312140654 0.4799820421561937
1652493938.98892 16.49517749484369 -42.94777113026035 0.49452962558909036
1652493939.3888767 16.827439609183934 -43.41763987434305 0.49714051029355566
1652493939.78896 17.132161142778955 -43.85457308489017 0.49857743753006534
1652493939.78896 17.132161142778955 -43.85457308489017 0.49857743753006534
1652493940.1888664 17.42177458430531 -44.322638480867106 0.4999490158401035
1652493941.3889952 18.17821058902461 -45.808778751675085 0.47141007875151025
1652493941.7889898 18.3206431604234 -46.31343473029684 0.46994044835181564
1652493942.188998 18.50052522015441 -46.971667830484265 0.47982905889782107
1652493942.188998 18.50052522015441 -46.971667830484265 0.47982905889782107
1652493942.9890225 18.727987065761955 -48.16017978365897 0.4734688849684501
1652493943.7889686 18.918810993651668 -49.35420070513532 0.464798267403311
1652493944.5889752 19.07065815678855 -50.54575777295305 0.45412178220965094
1652493946.1889606 19.288660447701673 -52.846681829384146 0.4163598544952072
1652493946.5890598 19.343382486593534 -53.430233616029966 0.40941688202099963
1652493946.9889865 19.40524288682719 -53.99971811867669 0.40130151336557845
1652493947.3890002 19.474012605304452 -54.558081326144645 0.40262448805332923
1652493947.7889857 19.56262800027957 -55.12407587808539 0.40572661632190277
1652493948.588999 19.795406004600295 -56.26169104839289 0.41049621671885433
1652493948.9889932 19.926897278236893 -56.81725969849747 0.41416887512119627
1652493948.9889932 19.926897278236893 -56.81725969849747 0.41416887512119627
1652493949.388852 20.09446567458467 -57.39950827468467 0.41415426035109437
1652493949.7888608 20.273428269934584 -57.97247136862885 0.4119986136614442
1652493950.588959 20.6548323292266 -59.07263967154072 0.401972880887595
1652493951.388961 21.059991116267344 -60.22696913498464 0.3935187463244568
1652493951.7889655 21.259466259529493 -60.78981783012563 0.38621644042258657
1652493952.1889553 21.43489385445488 -61.33463219298012 0.3853598670493136
1652493952.5889986 21.597563777306092 -61.913306209726706 0.38670048449102157
1652493952.9889863 21.741751948279322 -62.515613028297935 0.39036069366751347
1652493953.3889537 21.867128826852138 -63.10226195634808 0.39019920865315466
1652493953.7888284 21.96631491435641 -63.70984117962962 0.3893626029010403
1652493954.1888366 22.041161978589358 -64.27314648179542 0.3925489445227888
1652493954.5888677 22.122048095677165 -64.87483592602128 0.39355995558381635
1652493954.9889488 22.181391653547305 -65.49183157592716 0.399120635950759
1652493956.1887116 22.35116421669526 -67.2743975045327 0.40043493268562874
1652493956.5886033 22.382541992513236 -67.87493872384957 0.4035594333618581
1652493956.9885707 22.408120882617865 -68.48576606156188 0.40264230535442647
1652493957.7894428 22.426659808970772 -69.68340720391303 0.3992495625087993
1652493958.1905837 22.416325455798248 -70.26895639047787 0.3989213362062173
1652493958.9892364 22.39291390035336 -71.48565583478052 0.40048223546402906
1652493959.3892162 22.36614832294119 -72.07314778677325 0.4007286964029384
1652493959.7892282 22.344881242945885 -72.66545455903307 0.39781804067026777
1652493960.1892002 22.32501602505823 -73.27498947660902 0.39565501254273455
1652493960.9892094 22.302334031537658 -74.45929445350609 0.389551833758668
1652493961.3891985 22.289511313858128 -75.06918305042714 0.3852435661555404
1652493961.7890754 22.277013088777135 -75.6896569452547 0.3771886891677409
1652493962.1890867 22.253103475479083 -76.27939842942727 0.3675281244590648
1652493962.5890906 22.23849576255328 -76.88450435691675 0.35765153426963053
1652493962.9910617 22.22557775388 -77.5183062885095 0.34396192666406533
1652493963.3898904 22.21859064251023 -78.08958350541018 0.32782403729063553
1652493964.1898746 22.19618156748373 -79.26687312886718 0.3063718526801849
1652493964.589819 22.176673314293186 -79.83576725787249 0.3017952732366857
1652493964.9898272 22.170300109155086 -80.41945940851485 0.30005918147561356
1652493965.3910677 22.150306223624593 -81.02220413810993 0.29939697193247805
1652493965.7909553 22.11959194540396 -81.62620505819334 0.2969876900553606
1652493966.190962 22.080001936793952 -82.22500894143798 0.29308602820370877
1652493966.5898194 22.043986623438578 -82.82456178652073 0.2881611293227796
1652493966.9898608 22.020418525747747 -83.41658542494692 0.2821868215057535
1652493967.3899975 21.98941394919265 -83.95304038188007 0.28191221734061694
1652493967.7888527 21.96464229588861 -84.56010089289619 0.28444673562585565
1652493968.1889095 21.89006965833149 -85.20678248882957 0.28671932385360177
1652493968.588883 21.826183757999026 -85.8198444581989 0.2803728654240677
1652493968.988836 21.813932186942452 -86.36121523581741 0.272441891704565
1652493969.388824 21.81179286972049 -86.84682991916561 0.26483616167526447
1652493969.7888274 21.74427711501846 -87.29907610461107 0.2755941288953764
1652493970.1888528 21.649728704226327 -87.80309308950105 0.2999466243835017
1652493970.588814 21.429924723960934 -88.38348335744763 0.36267614383956887
1652493970.989941 21.212058900750325 -88.95548977603048 0.3860241911942946
1652493971.389838 20.969780316813768 -89.5221783077864 0.39209551398455256
1652493971.7899656 20.706141805500057 -90.09177336837399 0.3873573098266554
1652493971.7899656 20.706141805500057 -90.09177336837399 0.3873573098266554
1652493972.590057 20.132998981137206 -91.24126201668591 0.3478915657029634
1652493972.9900072 19.84394684280462 -91.74717380024899 0.33210742017887246
1652493973.3899941 19.55372535366059 -92.23578402236187 0.3305121518192636
1652493973.789964 19.217506234149386 -92.76392557597164 0.32962352065340506
1652493974.1899788 18.889027030644904 -93.28277962167601 0.32786287678693354
1652493974.1899788 18.889027030644904 -93.28277962167601 0.32786287678693354
1652493974.5898356 18.54940835951037 -93.78910331082757 0.3191731206523161
1652493974.9896982 18.20853926451131 -94.27465688797936 0.31127695120114107
1652493975.389583 17.858111030889503 -94.75717786782155 0.3043827154921203
1652493975.7895892 17.47690045369265 -95.24189984148902 0.2988286880465269
1652493976.5896091 16.744324293025986 -96.16909926504792 0.28317380125304253
1652493976.989732 16.375961902019228 -96.57189459142263 0.2795944331405297
1652493977.3898413 16.059046416632267 -96.88970812251597 0.2774971282053594
1652493977.7898335 15.777804427834699 -97.1217321004676 0.2779737747717574
1652493979.3899016 13.737215931338254 -98.10470713267942 0.2812987133449021
1652493980.5898123 12.12604028155018 -98.21256817558405 0.29519058022236633
1652493980.9896932 11.549477806354385 -98.08779015409408 0.30073551254131586
1652493981.3895934 10.946978860922433 -97.9135650533433 0.30352225491872675
1652493981.7895732 10.351562205855052 -97.67279350385729 0.3039080128460179
1652493982.5895224 9.191262420168748 -97.05674491092769 0.2801625563317307
1652493982.989488 8.645495706134048 -96.68687279359547 0.2567011469131873
1652493983.3894832 8.156214021105729 -96.2982758245293 0.23188986128734823
1652493983.7893672 7.744432659363791 -95.92232100328229 0.21912700237376984
1652493984.189375 7.2942466078851735 -95.49951075767379 0.20952516328650042
1652493984.5893211 6.859965744850197 -95.05180952744777 0.20441602662850022
1652493985.389488 6.120211878224308 -94.16779009828754 0.20700634225591266
1652493985.389488 6.120211878224308 -94.16779009828754 0.20700634225591266
1652493985.7895894 5.730181379426346 -93.68843171642416 0.21171500922847325
1652493986.1896524 5.367545665475986 -93.19876144277481 0.21314103232880743
1652493986.5896256 5.021403828602534 -92.70792253422738 0.21112040979110244
1652493986.989643 4.699827933790583 -92.21953596999283 0.2121841640680317
1652493987.7896144 4.086300446850444 -91.12868754012322 0.21075549157110118
1652493988.1897016 3.82302552385819 -90.59563588761122 0.20790915578330715
1652493988.5898666 3.5836923389122526 -90.02530105631192 0.2035518656993245
1652493990.1893892 2.7968804697562804 -87.79129245621141 0.1915267203024029
1652493990.9894474 2.400732778540611 -86.58065657193607 0.15992232410419685
1652493991.3894134 2.2232037660921513 -86.00096553660275 0.13458189363079212
1652493991.789246 2.0529788310964516 -85.45081270014981 0.10222424302576737
1652493992.9893723 1.4923740208259415 -84.02812571666212 0.06445509865972857
1652493993.7894347 1.0242231064109857 -83.0505733020848 0.0743534552992438
1652493996.1891716 -0.07165495796696539 -79.81968639712798 0.18016005278937391
1652493996.1891716 -0.07165495796696539 -79.81968639712798 0.18016005278937391
1652493996.9893303 -0.20083961956206592 -78.63889617203589 0.18568838467333
1652493997.789232 -0.26718830629830753 -77.4942070560752 0.21352322542787275
1652493998.1892636 -0.2920598317657563 -76.8706719095584 0.2269716439852434
1652493998.5892181 -0.3066407495197187 -76.27276409525686 0.23799326277705704
1652493999.7892349 -0.28244518380568495 -74.46599977389616 0.26353427869286133
1652494000.1892786 -0.2682471748646125 -73.86947117252348 0.2672700300610353
1652494000.5892377 -0.24916818982372374 -73.24580814270149 0.2705774029438333
1652494002.1893058 -0.25853532542751567 -70.93758729927399 0.2851863974158427
1652494002.1893058 -0.25853532542751567 -70.93758729927399 0.2851863974158427
1652494002.989469 -0.3674109904483571 -69.96071259195747 0.2859367743993585
1652494003.3894682 -0.44282204090457694 -69.36717819692761 0.28368088483553144
1652494003.789465 -0.5103896211817944 -68.7597810797281 0.28153502107896405
1652494004.189498 -0.5650059309465111 -68.1689016421884 0.2832810657993595
1652494004.589494 -0.6151216375339228 -67.5570656930259 0.28368689121671775
1652494004.589494 -0.6151216375339228 -67.5570656930259 0.28368689121671775
1652494005.3898535 -0.6927303058892358 -66.33120913113143 0.2762829048492673
1652494005.7898402 -0.7266875133893879 -65.74499576136816 0.2713498451353877
1652494006.1898463 -0.7449104278710582 -65.12566012665619 0.2680299847241134
1652494006.5898595 -0.7704952262980472 -64.52803196092152 0.26395686294005616
1652494006.9898858 -0.7888274175205499 -63.983314788179264 0.26638032655404775
1652494007.3900082 -0.8107640517017392 -63.41081766166498 0.2737863554890417
1652494007.7888803 -0.8092488042715935 -62.79065665387443 0.28579267687288606
1652494008.1888936 -0.8215138011488469 -62.1634825163746 0.2888424826205694
1652494008.5888686 -0.8345793702332052 -61.535280947904944 0.28530827128392017
1652494008.9900846 -0.8231096593104847 -60.91370015958667 0.27715522502452394
1652494009.7900991 -0.846394050350784 -59.73153032784256 0.25515601287321404
1652494010.5901113 -0.9427991682304342 -58.594252459103146 0.24079968878851327
1652494010.9900734 -0.9405613633317413 -58.009372704210065 0.24665748405109497
1652494011.3930418 -0.8953040042749376 -57.477670521940475 0.26883048376259616
1652494011.3930418 -0.8953040042749376 -57.477670521940475 0.26883048376259616
1652494011.7905602 -0.8696356723594442 -56.909953876121534 0.2928898276439557
1652494012.5895157 -0.8563746795967389 -55.69852777766382 0.31675050957060863
1652494013.3894897 -0.8780465954018167 -54.508717858454474 0.32048242675179167
1652494014.1895082 -0.881761645334362 -53.32201002699875 0.3283990534547553
1652494014.589452 -0.8889262549768091 -52.70532467239226 0.3264511388395483
1652494014.989314 -0.8865020468940028 -52.1035665377399 0.32823077880108803
1652494016.189274 -0.8640245184290856 -50.36003968512883 0.34036415711911494
1652494016.5891147 -0.8520954053434946 -49.73972539698936 0.34229677642772854
1652494016.9892507 -0.8329253228664618 -49.11260202149891 0.3442909411735792
1652494017.7892978 -0.7639741706831972 -48.01434591099253 0.3766908823515175
1652494018.1892564 -0.7417756953771399 -47.38085554602637 0.38808623220520644
1652494018.589279 -0.7262207282399535 -46.72854743407931 0.3794651946094399
1652494019.3892744 -0.673474321649973 -45.537385448947234 0.3641114318621995
1652494019.7892647 -0.6382942481656034 -44.91458503050178 0.3559862377987839
1652494020.189268 -0.5951864563696653 -44.36417984053053 0.3573044170221319
1652494020.5892556 -0.5644783760055997 -43.78227252691891 0.36117088892886395
1652494020.9892716 -0.5445417948208232 -43.18585834932865 0.37052425718672005
1652494021.3892574 -0.5440373691017721 -42.59293213948413 0.3742635191141968
1652494022.189214 -0.5856478595693331 -41.504203763319246 0.37513183772137515
1652494022.589218 -0.6444846848606893 -40.98169120177875 0.37897062557713834
1652494022.9892077 -0.7228307065710939 -40.41831520562762 0.3785420736256056
1652494023.3892558 -0.8510136395805227 -39.86437118369892 0.37429249548663795
1652494023.7892885 -0.9801688815199813 -39.341532628385636 0.38153895580817937
1652494024.1892817 -1.1705114835677486 -38.80353640470682 0.3844544487285664
1652494024.589254 -1.381771745336343 -38.286014184063674 0.3914213321565603
1652494024.989269 -1.638222843609857 -37.76538020770337 0.39314871650102023
1652494025.3892455 -1.9236656609191845 -37.27118676674812 0.399065323131372
1652494025.3892455 -1.9236656609191845 -37.27118676674812 0.399065323131372
1652494026.5891974 -2.8679641340731075 -35.80032592235014 0.4305841647178243
1652494026.9903843 -3.2100049534451087 -35.322058233733685 0.4401765266202439
1652494027.3904233 -3.571374462393333 -34.830478604070095 0.44536061258088927
1652494027.7892947 -3.9551927679323 -34.310464208418956 0.4442338778122779
1652494028.189244 -4.311538080000714 -33.80634175855915 0.43823365711607104
1652494028.5892973 -4.641719756791895 -33.28057232873238 0.4314806973341335
1652494028.9892778 -4.952095199003813 -32.768668426307954 0.428934717934256
1652494029.3892906 -5.211640714081764 -32.23665254103808 0.43412553201697973
1652494029.7903886 -5.475250911466171 -31.677121501633145 0.4335399566995465
1652494030.189254 -5.7192176189189015 -31.097439404006973 0.4351504357656004
1652494030.5893466 -5.927057237960021 -30.53571394169706 0.43595471053040585
1652494030.9893537 -6.105054903087553 -29.952580600943023 0.43540802012918783
1652494032.1905122 -6.624613205250477 -28.204062385946163 0.42997817913320907
1652494032.590523 -6.782421874032601 -27.642379065356824 0.4295315720459582
1652494032.590523 -6.782421874032601 -27.642379065356824 0.4295315720459582
1652494032.9905503 -6.919631795876738 -27.068515228588033 0.43150591857095266
1652494033.390515 -7.078037471764925 -26.461811024180175 0.4276287992848395
1652494034.589323 -7.48588180363549 -24.7438120220684 0.4327378472630773
1652494034.589323 -7.48588180363549 -24.7438120220684 0.4327378472630773
1652494034.9904864 -7.612413561913863 -24.185404900195444 0.4370472240599249
1652494035.3905256 -7.750219786766287 -23.59630630616001 0.44352245167081755
1652494035.7906005 -7.8919381125331425 -22.976863845384337 0.44220374448271743
1652494036.1893785 -7.9987135670992755 -22.467130167563976 0.4431982502909581
1652494036.5893877 -7.985093042476924 -22.073968459454427 0.444211202307874
1652494036.989393 -7.919189697256025 -21.69411876492915 0.4477385647991341
1652494037.3906443 -7.752080235625097 -21.275646972436366 0.45584881088772417
1652494037.7905295 -7.4688881565557 -20.875836326019062 0.46484473499651086
1652494038.5904958 -6.526921150233741 -20.00621965280847 0.45848983054029563
1652494038.9905283 -6.012801988321981 -19.63637586797847 0.4454054845064588
1652494039.39052 -5.493783030090253 -19.335442774247834 0.4348555070178772
1652494039.39052 -5.493783030090253 -19.335442774247834 0.4348555070178772
1652494039.7906532 -4.980068255236921 -19.059392543644968 0.429746363191787
1652494040.189856 -4.417372299394552 -18.80278068022075 0.43068641344376274
1652494040.5898376 -3.8969047867783693 -18.604656866694544 0.4479232596820303
1652494040.989839 -3.2913290157940116 -18.410891947759772 0.45882952003414135
1652494041.3898654 -2.713465499060328 -18.244171231099937 0.47851478616165305
1652494041.7898428 -2.0865752636060293 -18.125940524629232 0.48318873416795777
1652494042.1898417 -1.4531802127647506 -18.05753509573791 0.48894777623663355
1652494042.5897439 -0.8573857477789425 -18.042994648538333 0.49625623427913784
1652494042.9898705 -0.2529560798508749 -18.048107566781365 0.5023564377305989
1652494043.38989 0.350350144942164 -18.06728282560096 0.5080298284573218
1652494043.7898493 0.9542497317216982 -18.107018509357427 0.5097329261117552
1652494044.1898537 1.5696524964435055 -18.17815875368153 0.5118478483028458
1652494044.5898616 2.1532033517921643 -18.246736140689883 0.5186190137820352
1652494044.5898616 2.1532033517921643 -18.246736140689883 0.5186190137820352
1652494044.9898977 2.71670713051357 -18.32850419131711 0.5190845099484743
1652494045.3898644 3.0955605436551252 -18.383871051893244 0.5223902018994854
1652494045.7898402 3.535215822585748 -18.427200964789733 0.5263435746826547
1652494046.189879 4.1808311048732545 -18.50625757803947 0.5235985967843337
1652494046.5898662 4.784160640937617 -18.577100031178958 0.5203644486304528
1652494046.989866 5.320732222809303 -18.638906466494483 0.5227324136468399
1652494047.78996 6.514572247786886 -18.816652128098948 0.5421964876995333
1652494048.1899552 7.094772465399226 -18.913957643298428 0.5493635343961664
1652494048.5910816 7.704231122314796 -19.018712028944602 0.5579094860415249
1652494048.9909885 8.29887891763676 -19.14757947294957 0.5630717373194868
1652494049.3897681 8.791502061494775 -19.299090413762116 0.5699987645746332
1652494049.7897618 9.271409031942323 -19.520310405755144 0.5781317553770865
1652494050.189764 9.75711139900807 -19.814002144265086 0.5832030522502477
1652494050.589754 10.233600197762401 -20.18315406298216 0.5825765691086261
1652494050.989805 10.692359114620494 -20.621027117623537 0.582600047020951
1652494051.389711 11.087851824478808 -21.10246526342636 0.5762206672597595
