1652494037.2572508 -7.05816109737351 -21.29363234349763 0.09862320081364667
1652494037.655927 -6.742391085363909 -21.014276443495444 0.09928587827023908
1652494038.0572467 -6.412480300104127 -20.7253772191188 0.0963473491480263
1652494038.4571066 -5.963033151480428 -20.408679751745154 0.07440973084684607
1652494038.8570025 -5.474562579338539 -20.09892455309218 0.069281333537995
1652494039.2568746 -4.9726017751861065 -19.816921689606755 0.07292057513946403
1652494039.2568746 -4.9726017751861065 -19.816921689606755 0.07292057513946403
1652494039.6569734 -4.477010130242823 -19.57291879306168 0.08413041663158231
1652494040.0562952 -3.9440343352084373 -19.341391123121078 0.0938489653863668
1652494040.8562932 -2.873517995746326 -18.971400745823143 0.12470128360142041
1652494041.6563432 -1.7530359002293388 -18.745207395989933 0.13243723865947005
1652494042.0575247 -1.168436528363726 -18.696819252962037 0.12787608522885954
1652494042.4561393 -0.5959380360717574 -18.69800841840413 0.1289214172794496
1652494042.8561924 -0.022121809779216406 -18.71206778650229 0.13608991997703748
1652494043.6573915 1.1312631741851824 -18.79576732471879 0.15005699631368052
1652494044.0562024 1.7249637469770391 -18.86267016508342 0.1519252008476655
1652494044.456128 2.3071652674117775 -18.938470119220774 0.15647683959238196
1652494044.456128 2.3071652674117775 -18.938470119220774 0.15647683959238196
1652494044.8561525 2.8770200267543036 -19.02156403719263 0.1597178094040676
1652494045.2574043 3.340075543641639 -19.079120004712593 0.15351059837029918
1652494045.6561663 3.727110900781881 -19.119663779557897 0.16849797988401113
1652494046.0561588 4.317272476500987 -19.186065590726482 0.16870609918184337
1652494046.8561308 5.490736534111212 -19.334218579696113 0.1648657565198214
1652494047.2564178 6.069953159139924 -19.416998700472416 0.18138769628719245
1652494047.6563783 6.660084961508678 -19.50853445538977 0.1824000684459264
1652494048.057673 7.232161589610216 -19.601406546050487 0.19091458168473774
1652494048.4576218 7.816622632554413 -19.71012080440472 0.19957770739386815
1652494050.457305 9.986832943694532 -20.83702710012965 0.22492256585870612
1652494050.8585305 10.362236956975993 -21.240967576656047 0.22039977901152855
1652494051.2585485 10.69742389485868 -21.70875173515175 0.21354391455065339
1652494052.0566897 11.207457670987594 -22.753145790374482 0.20187621842790812
1652494052.4554017 11.397004354824455 -23.212953934439494 0.201838806628527
1652494052.856647 11.510964541355182 -23.702052608057745 0.20824516465570025
1652494053.654039 11.680562524709575 -24.934690548985714 0.20105513174536493
1652494054.0552528 11.742257456592101 -25.51681100195165 0.197864166627625
1652494054.0552528 11.742257456592101 -25.51681100195165 0.197864166627625
1652494054.856777 11.792594888394348 -26.70343097818624 0.17812019358469977
1652494055.2554953 11.795305045053082 -27.290607326150536 0.17375589999009733
1652494056.0554276 11.790697851496732 -28.442587939274087 0.16817549626855627
1652494056.4554253 11.770008192854814 -29.013883792536504 0.1734346241978333
1652494056.8554208 11.732447043944877 -29.596938897179363 0.17615257338996876
1652494057.2554042 11.675744086120936 -30.18128096347172 0.1760163084708154
1652494057.6541224 11.60894910772701 -30.760090258901748 0.17527902239630416
1652494058.0566447 11.536098681226932 -31.34782983127327 0.1751950854613716
1652494058.454169 11.437802445120473 -31.94064567693782 0.16788025061021183
1652494058.8566346 11.297498989718486 -32.501193138188135 0.15605468602685357
1652494058.8566346 11.297498989718486 -32.501193138188135 0.15605468602685357
1652494059.2552717 11.102227848084034 -32.986223592704015 0.1379310448390762
1652494059.6551836 10.877862547440579 -33.44743292603553 0.12939797324689545
1652494060.0551593 10.719929779791268 -33.85906029091804 0.11575449836776969
1652494060.4551601 10.67543030401551 -34.12173005811516 0.11784155073572067
1652494060.855143 10.621678920963053 -34.52096694244965 0.12530534512196076
1652494061.2551467 10.59090091776472 -34.99805018389266 0.12631890533591594
1652494061.6552634 10.62846364133324 -35.48401688679408 0.12718169233589732
1652494062.4552362 10.87317196462158 -36.427738777940114 0.11797386679829021
1652494062.8563716 11.066873533784086 -36.94293901715433 0.11744074063164402
1652494063.254991 11.286736449243627 -37.522590226825024 0.10877481164405076
1652494063.656169 11.511074900053671 -38.07130971061246 0.10898288310662801
1652494063.656169 11.511074900053671 -38.07130971061246 0.10898288310662801
1652494064.4561775 11.998166324179671 -39.18681837153756 0.10593388291768015
1652494064.856194 12.236606261909763 -39.70660101784424 0.10994402139388802
1652494065.2561877 12.489713949121032 -40.27103580722047 0.11120053953903325
1652494065.6549547 12.75188954627816 -40.824362363281566 0.11444583518253938
1652494066.0561635 12.978605202006506 -41.32875424501523 0.12066208458152215
1652494066.4560387 13.17265077430217 -41.860652672013494 0.11753708756499148
1652494067.2560155 13.446287692797586 -42.89608845699156 0.1098108097062502
1652494067.6559985 13.529106899216412 -43.44833967746585 0.10831903405536544
1652494068.0558834 13.60953611637299 -44.03096639025557 0.1046167005543936
1652494068.455809 13.690292882540625 -44.59008917220814 0.11001281599441903
1652494068.8557675 13.763190937103364 -45.151077460022265 0.12480468541229262
1652494070.055717 13.946464291326972 -46.969125983725064 0.10993873152467995
1652494070.055717 13.946464291326972 -46.969125983725064 0.10993873152467995
1652494070.4558282 14.00395312968233 -47.55074694195749 0.10914379102970478
1652494071.2546895 14.106906403894655 -48.77221140900495 0.08121464804262263
1652494072.0559125 14.170582437661963 -49.94153297283708 0.07806966531271123
1652494072.4560277 14.181730122546384 -50.535102452954064 0.07182826413954356
1652494072.8560362 14.185329395409177 -51.139739239385335 0.05957327177893607
1652494073.2560139 14.188358540067181 -51.73021192181234 0.05483719702469869
1652494073.654773 14.18372164428413 -52.31929985308335 0.0512587528640773
1652494074.054769 14.172803843406196 -52.915910581925395 0.043692555459356484
1652494074.454776 14.163198578570249 -53.50014872187147 0.04414721051383589
1652494074.854816 14.148377496846969 -54.097546003130375 0.04322793854131337
1652494075.2548175 14.144249157785772 -54.71454658474299 0.03557703057301606
1652494075.6549165 14.163056524866121 -55.30917458054767 0.029743965687144738
1652494076.0549147 14.218751241497984 -55.91658288585897 0.02390467338546531
1652494076.4549267 14.299233478847395 -56.50846581784737 0.019266964002096015
1652494076.8549738 14.419026414588082 -57.10056889527374 0.017514320327815247
1652494076.8549738 14.419026414588082 -57.10056889527374 0.017514320327815247
1652494077.2549684 14.60595727088598 -57.662661836385865 0.019830377458116104
1652494077.654948 14.82732761167647 -58.2136210540984 0.021999229305269475
1652494080.8561668 16.755937820431964 -62.57157877485161 -0.005957632229283236
1652494081.2562802 16.968462247812152 -63.1106813433652 -0.003999173115662336
1652494081.6563258 17.16154608813072 -63.63817127078349 -0.00028413501752955206
1652494081.6563258 17.16154608813072 -63.63817127078349 -0.00028413501752955206
1652494082.056159 17.34971858874995 -64.1624059185631 0.0045111844307898705
1652494082.4561877 17.522934625938127 -64.68690349359079 0.009672875796226867
1652494082.856193 17.678322153149338 -65.24260168301248 0.012773406342621463
1652494084.0562127 17.932350388891543 -66.96333444601157 0.01093381642709525
1652494084.4562147 17.999497298114115 -67.55606638974686 0.010100316821984978
1652494084.8562002 18.05540920191312 -68.15434899766325 0.006940857207483109
1652494085.6561527 18.13609315659781 -69.33054047921448 -0.004478162713091816
1652494086.0561407 18.165531824400997 -69.91239766039675 -0.004454001126781175
1652494086.4561296 18.197236633738342 -70.52894584127992 -0.01025649663315907
1652494086.8560078 18.25842721721442 -71.1430415921313 -0.016563052436141458
1652494087.256005 18.33222120336656 -71.74925145712322 -0.024023012653239806
1652494087.65604 18.430539112503457 -72.33999982979164 -0.03044988065720005
1652494088.0560174 18.558050692165097 -72.93335066549045 -0.03402566196318302
1652494088.456043 18.722127944370005 -73.52840809266968 -0.03661628222624898
1652494088.456043 18.722127944370005 -73.52840809266968 -0.03661628222624898
1652494089.258191 19.07502827861828 -74.67241218764154 -0.04027185355868182
1652494089.6557205 19.256875249792625 -75.26422966180235 -0.052472903681967276
1652494090.0569026 19.42731811751083 -75.82996157290981 -0.06027733077289172
1652494090.4556823 19.608051966872235 -76.40092263485397 -0.06467007214705839
1652494090.8569367 19.78519439536001 -76.9877378529228 -0.07588783269665078
1652494091.2556956 19.951815524474 -77.5598406044025 -0.08845428545639672
1652494091.6581535 20.09682668486799 -78.12352797557746 -0.09743965073230362
1652494092.4569285 20.306445703844744 -79.20559904396946 -0.11108012717852897
1652494092.8556716 20.32692288097561 -79.68632505008125 -0.11996234556833568
1652494093.2569554 20.317008238152788 -80.13091343162867 -0.11870181030329374
1652494093.6557257 20.265229424837138 -80.62376444477664 -0.1184315552271197
1652494093.6557257 20.265229424837138 -80.62376444477664 -0.1184315552271197
1652494094.0594244 20.17150751097455 -81.14904386430246 -0.12320191605503394
1652494094.858172 19.88955225217343 -82.25159079264944 -0.14056210125427265
1652494095.2581902 19.722113789077895 -82.7827441824293 -0.14672153807170102
1652494095.6581838 19.522063633096984 -83.32884981032095 -0.15299880080956765
1652494096.4569552 19.09257253178538 -84.46761128077956 -0.1845136129665928
1652494098.058157 18.18077994921368 -86.5427189352331 -0.15714647517269925
1652494098.4569325 17.933403188329955 -86.99575919882516 -0.1263515180819439
1652494098.8569355 17.632943009722048 -87.4622795840418 -0.11236305409813499
1652494099.256906 17.278442206769263 -87.9322983538207 -0.12132352426791687
1652494099.6570117 16.927627212357407 -88.34933346990435 -0.10852477231653876
1652494100.4571147 16.106290508046754 -89.14361760483257 -0.1055495773562436
1652494101.257263 15.182602456887892 -89.75732465361362 -0.09097068411463832
1652494101.6560216 14.658831698117218 -90.00312413151849 -0.10070619546699776
1652494102.4571474 13.563059889141243 -90.41224056867247 -0.11536155158069171
1652494102.8571577 13.021336080705382 -90.57261813080753 -0.10823851436885115
1652494103.257143 12.455806520860286 -90.70196203265002 -0.11074494926993973
1652494103.6571414 11.898202839421835 -90.79937936648503 -0.10944115134478014
1652494104.0558977 11.311081624824148 -90.87697172937783 -0.11670722083422991
1652494104.4571872 10.707297827904668 -90.9343291058789 -0.1311909340512288
1652494104.8559685 10.123254708294738 -90.96758863001367 -0.13887941888279845
1652494104.8559685 10.123254708294738 -90.96758863001367 -0.13887941888279845
1652494105.6572123 8.937899984491345 -90.93542141834625 -0.16874938620352636
1652494106.4569883 7.780480819260042 -90.78224866997144 -0.19530692965372792
1652494106.8556213 7.226026738987088 -90.69066045495973 -0.18995222924442373
1652494107.2567692 6.670612560448511 -90.57149141869098 -0.18760216839778787
1652494107.6580331 6.103977455703578 -90.42892714218954 -0.18799605355402965
1652494108.0554893 5.56399134044684 -90.27466190462226 -0.1799927808180995
1652494108.457959 5.043975076455283 -90.08807227624388 -0.16973954726110274
1652494109.2566707 3.981579897465373 -89.653593535315 -0.16220207227347724
1652494109.6568897 3.495903935630949 -89.39333148139482 -0.15531539337585404
1652494110.0581286 3.064075347363179 -89.1065624557655 -0.14220385648339276
1652494110.4580338 2.622554321729524 -88.76516260403359 -0.13269544049557766
1652494110.858121 2.1806924303998585 -88.37194732776976 -0.13290541232354847
1652494111.2567537 1.7814474359705912 -87.96517120920547 -0.132401264261092
1652494111.6566725 1.421838844960476 -87.51303251141493 -0.1365021024425992
1652494111.6566725 1.421838844960476 -87.51303251141493 -0.1365021024425992
1652494112.0566473 1.082181779365989 -87.0182519485187 -0.1464813153409109
1652494112.456619 0.7482627835538054 -86.48094915115132 -0.18066589015707887
1652494112.8565073 0.45069666367076167 -85.93983128210365 -0.2394186027080095
1652494113.2566464 0.19250081885381576 -85.44175581862203 -0.259346253615274
1652494113.6566694 -0.01759124258544631 -84.93681372114837 -0.25994942336590265
1652494114.4566836 -0.3493130381280096 -83.90460173413692 -0.244076827296716
1652494114.8580108 -0.46291217652621697 -83.37287766597555 -0.22567318058031313
1652494115.2556481 -0.5329429114439179 -82.83269638795167 -0.20816325685174733
1652494115.656923 -0.5687173055973958 -82.28537151628407 -0.18783327404442388
1652494116.0569062 -0.583273159068554 -81.71168314704235 -0.17236045007359516
1652494116.0569062 -0.583273159068554 -81.71168314704235 -0.17236045007359516
1652494116.45693 -0.5673329327328958 -81.12646009919825 -0.16178112510072243
1652494119.9374065 -0.40060109669840926 -79.34748338186941 -0.16823220837617986
1652494118.0556698 -0.286351128783231 -78.78626131559437 -0.16902687133875516
1652494118.456941 -0.1706640493864029 -78.23260004530513 -0.1636552513448306
1652494118.857255 -0.040021007508798334 -77.69353090405286 -0.1480604923236865
1652494119.256005 0.10285977089566956 -77.14061372474166 -0.12839498267548158
1652494119.655989 0.25320657432740035 -76.57252174776568 -0.11860418053991069
1652494120.456987 0.5770369325636295 -75.46598992594367 -0.09259287522268933
1652494120.8568728 0.759911302567474 -74.8910153836404 -0.08470159957268109
1652494121.256759 0.9375935910364106 -74.33629325848912 -0.07314795359720112
1652494121.6567075 1.1007303395478871 -73.76167607088298 -0.06650060367795749
1652494122.0566666 1.243068999552662 -73.20227416799855 -0.0704150847849208
1652494122.456677 1.3560326368600712 -72.65065164978327 -0.07698828183702534
1652494122.8566997 1.465923388282178 -72.1014214220396 -0.0781858535128488
1652494123.2566838 1.5577215128969186 -71.53612010320708 -0.0761196535288298
1652494123.6567063 1.6563776768827907 -70.95844705455781 -0.07214034154269411
1652494124.456625 1.8592234633403564 -69.75558462822332 -0.06750389853713606
1652494124.856495 1.936014126906798 -69.13808475655027 -0.0709024221862852
1652494125.256519 1.9849392433929083 -68.52885060577991 -0.0739810458225526
1652494125.256519 1.9849392433929083 -68.52885060577991 -0.0739810458225526
1652494125.6569154 2.0116039119320703 -67.9144776363084 -0.07870678102523151
1652494126.0563235 2.0036574030893206 -67.31322688380953 -0.08055492338824918
1652494126.8563135 1.9087250188325982 -66.10580697765974 -0.08454104341919788
1652494127.2563283 1.8185397181676421 -65.49168561499268 -0.09248424195898575
1652494127.6563427 1.708396840653485 -64.89560135310228 -0.09971785436700753
1652494128.456292 1.4136274698086027 -63.72602448143483 -0.11329910740723073
1652494128.8562589 1.2351384042885698 -63.155010142886965 -0.11164652654378349
1652494129.2561371 1.0263616788396561 -62.58688978485935 -0.10999852906581609
1652494129.656205 0.8088269366040279 -62.020773225747966 -0.10914607488792635
1652494130.0561461 0.5742695923455585 -61.462610266184925 -0.11137662813706471
1652494130.0561461 0.5742695923455585 -61.462610266184925 -0.11137662813706471
1652494130.4561424 0.3219712436253559 -60.91077989426277 -0.11195653396237071
1652494130.8561523 0.06106833325512184 -60.367407637107824 -0.11030144325651059
1652494131.2561693 -0.20892618876734304 -59.83035529050408 -0.10792513985005761
1652494132.0561485 -0.7928378963885834 -58.75587619328681 -0.10973683866278228
1652494132.856138 -1.265610753959642 -57.787623163568746 -0.1047986124558865
1652494133.2561269 -1.4567687887297822 -57.3146947538158 -0.09214825730908227
1652494134.0558562 -1.6567391137436331 -56.502056349638174 -0.04791198682596777
1652494134.4558702 -1.6813734256107793 -56.07438830090493 -0.028488732027729488
1652494134.855881 -1.670114371238114 -55.59300265866144 -0.039177985722144634
1652494134.855881 -1.670114371238114 -55.59300265866144 -0.039177985722144634
1652494135.255759 -1.6014490489036213 -55.14694329381357 -0.04637609852765655
1652494136.4556665 -1.2290235596999821 -53.6110219764618 -0.03185204875264958
1652494136.8556752 -1.092439354789672 -53.03403360204494 -0.02706739699655694
1652494137.2558608 -0.9843925319920181 -52.46279117056355 -0.025477552622752843
1652494137.6565611 -0.9261733192579413 -51.9136063355605 -0.02846115693926444
1652494138.856687 -0.8058545700497284 -50.25703641387003 -0.016741910121827942
1652494139.2566674 -0.7559257431898629 -49.655127119352336 -0.006702661518528739
1652494139.656698 -0.6820350776258834 -49.03096507133352 -0.01567305930543037
1652494140.0566895 -0.6240518314388481 -48.493965379652536 0.015740476957755323
1652494140.4579885 -0.5679063617380322 -47.91792768454191 0.0359260939673954
1652494141.2580109 -0.5570474468098006 -46.64508389149158 0.0359791630270622
1652494141.658301 -0.5586962360720662 -46.00806998876507 0.006873002403692298
1652494141.658301 -0.5586962360720662 -46.00806998876507 0.006873002403692298
1652494142.4567883 -0.5664870756016498 -44.8171491312698 -0.003665671197107645
1652494142.858073 -0.5782572150385796 -44.246205252746435 0.008100795310723496
1652494143.256767 -0.5712261470064242 -43.67848350837117 0.01865352474459431
1652494143.6580353 -0.537833225055742 -43.074343159442165 0.013569377667072655
1652494144.8566728 -0.4378736073476972 -41.38522982899546 0.03009476578009535
1652494145.256663 -0.3921753219085602 -40.8552057359529 0.029422799000552294
1652494146.055423 -0.31027181595266384 -39.744634226788264 0.030680460341796407
1652494146.4554226 -0.26819238627717823 -39.15546625265688 0.032376517998317596
1652494146.8566213 -0.21374421300968294 -38.56512482837039 0.03535086259228641
1652494147.2564883 -0.14745906188210967 -37.964068198605425 0.03288754205901366
1652494147.6563225 -0.08548305838501236 -37.38576138827009 0.0349267088904641
1652494148.0562673 -0.012846657129003347 -36.77954502898314 0.03227527482043534
1652494148.4563363 0.05199399068820654 -36.19210156608462 0.030936201226990163
1652494148.4563363 0.05199399068820654 -36.19210156608462 0.030936201226990163
1652494148.8562715 0.08757447900861592 -35.588875596662376 0.03780867884121903
1652494149.2574227 0.053300513154464824 -34.96782070575326 0.036880330967632116
1652494149.6561642 -0.039007914903944396 -34.414672208111796 0.03740751309152965
1652494150.0561638 -0.20105852454508266 -33.93483786264697 0.05407341539331609
1652494150.4562137 -0.42690847850271396 -33.49417704286912 0.06263506050051926
1652494150.856134 -0.7237855510035196 -33.10780585820595 0.06712030405964131
1652494151.2561316 -1.1347111599075 -32.663808735082355 0.0710450324112117
1652494151.6573825 -1.5478469023939034 -32.20761925241606 0.06999973360274993
1652494152.0561347 -1.9664028896854973 -31.769586113131616 0.0750866894990351
1652494152.4561195 -2.3949841673504935 -31.329434764210603 0.07685194893923838
1652494152.856074 -2.832164503466174 -30.903973934848374 0.07581043836714113
1652494153.2572796 -3.268036963809145 -30.497534787416924 0.0801013768846276
1652494153.2572796 -3.268036963809145 -30.497534787416924 0.0801013768846276
1652494153.6562166 -3.7137568288854155 -30.108007625162678 0.09591397684960773
1652494154.0566573 -4.184511601966774 -29.70141085503834 0.09818942760439102
1652494154.4553993 -4.654695327869129 -29.308327873124895 0.09410268649159034
1652494154.855388 -5.092629575996769 -28.91271491595495 0.09284896924766614
1652494155.6554027 -5.857181910592878 -28.109974894701494 0.08545664613277949
1652494156.055452 -6.138769278237508 -27.71971281775863 0.07899669436197869
1652494156.456681 -6.33580771934475 -27.35760941891127 0.07300658072550914
1652494157.25651 -6.5511699851105085 -26.6214127128276 0.09006084040067955
1652494157.6565104 -6.593278344034719 -26.183714794694986 0.08296030772321607
1652494158.0565004 -6.601840092817364 -25.743266986476257 0.07465467198133251
1652494158.4552898 -6.547075318185126 -25.328176729843804 0.07882939875056838
1652494158.856667 -6.449303062542162 -24.92450202048993 0.08413359753791202
1652494159.2554126 -6.3007016206816235 -24.52399484008217 0.08339076793445147
1652494159.6566305 -6.118660782148874 -24.114701829769086 0.08205028898871586
1652494160.0553908 -5.8983294178843835 -23.75361977873341 0.08158592338394524
1652494160.4566796 -5.631218829171226 -23.449168222214396 0.076355230536818
1652494160.4566796 -5.631218829171226 -23.449168222214396 0.076355230536818
1652494160.8554423 -5.296715472661688 -23.16829999655807 0.07662901125742631
1652494161.25665 -4.856794576326923 -22.836066097408903 0.08084319204075896
1652494161.6553805 -4.377156390640986 -22.523780979424515 0.08811321036573846
1652494162.0553832 -3.8924745131706917 -22.25719017465022 0.09640215239263893
1652494162.455398 -3.4020410291800083 -22.06591291780999 0.09967339335522635
1652494162.856686 -2.91533024227229 -21.919175556441026 0.12089696209729384
1652494163.255398 -2.3721525598607247 -21.802344668746578 0.12836552992734912
1652494163.6566722 -1.8383162727607143 -21.735737488135822 0.13361779939402502
1652494164.0553951 -1.298250608990033 -21.72661048129671 0.13813572928014675
1652494164.4566317 -0.8423479383369781 -21.703689074573532 0.13039987910510537
1652494164.8566682 -0.4038535268533998 -21.662925926923634 0.13073335412736928
1652494165.2566514 0.0194150010036811 -21.62313694771028 0.1333553699062775
1652494165.2566514 0.0194150010036811 -21.62313694771028 0.1333553699062775
1652494165.655721 0.40234596948565127 -21.557506885024363 0.13342342370665383
1652494166.0564473 0.6993382178617153 -21.482179207619836 0.13250013561108712
1652494166.4564607 1.021450934415176 -21.421189353923175 0.13561266072406236
1652494166.856456 1.5385556124063946 -21.328347209523535 0.14068467259407064
1652494167.2564056 2.1020010309954333 -21.22445593027176 0.13893617860737803
1652494167.6563768 2.6323807852372116 -21.13266192160206 0.14853005533687996
1652494168.0562537 3.1401555561314254 -21.0396412690103 0.16102616654090895
1652494168.4564135 3.608795910951022 -20.953656303868215 0.15792418453581747
1652494168.8564124 3.9937666668309024 -20.881962919321204 0.15922865085603918
1652494169.2563677 4.348148229095186 -20.815324395295864 0.173793157739415
1652494169.656281 4.730245388155577 -20.734014625072522 0.17736659658218898
1652494170.056411 5.1258319933836916 -20.6516774326722 0.17317893430430253
1652494170.456415 5.526905839292679 -20.569915529766444 0.16865167260986874
1652494170.456415 5.526905839292679 -20.569915529766444 0.16865167260986874
1652494170.8563972 5.941956189911933 -20.488357320185102 0.17290413210859631
1652494171.2564242 6.393196877466213 -20.396644625509275 0.1783266836543237
1652494171.6564095 6.83958678582818 -20.30385586815398 0.1805937108411496
1652494172.456394 7.729315920832752 -20.115579058458387 0.1985568621186654
1652494172.8563802 8.196784675995975 -20.017914678144848 0.2014954610297044
1652494173.2564251 8.653820739364257 -19.928126493468422 0.20759297786946157
1652494173.6562848 9.110701185159154 -19.85227197339144 0.21304197766721475
1652494174.05749 9.547928182497218 -19.789666350555102 0.2208915659668284
1652494174.4561422 9.917570742977428 -19.749159946954197 0.2216150783371481
1652494175.256167 10.641652431245783 -19.759060037128258 0.22663644645109043
1652494177.656915 13.182005029914608 -20.623937766026195 0.19407643836483998
1652494178.0569398 13.511342460778499 -20.88427458035098 0.2107582738865165
1652494178.455676 13.762098043209647 -21.159181081448686 0.22059526453547068
1652494179.2569342 13.974490361089032 -21.753654966493023 0.21743025547172606
1652494179.6556983 13.984043628184256 -22.01051027490749 0.21599899333468633
1652494180.0556884 13.983462670307091 -22.262869340299545 0.21284884362609005
1652494180.855669 13.989434763790818 -22.269348264086254 0.2146241856119764
1652494181.2569215 13.989531666090254 -22.269154615081842 0.21409327520668803
1652494182.0556505 13.990000219940114 -22.269887497345707 0.21399044635644793
1652494182.4559188 13.990187487552186 -22.27024339952259 0.2137581253293984
1652494182.856643 13.990314170984977 -22.270538080205945 0.21364108911043617
1652494183.255376 13.990214687719016 -22.270253808489905 0.21364885540775738
1652494183.6565597 13.990197092645385 -22.27015251195755 0.21358034068294138
1652494184.056521 13.992850188194918 -22.27371801623999 0.21352305272356786
1652494184.456506 13.996828744952083 -22.280785054065937 0.21397293562582656
1652494184.8563871 14.010432215382489 -22.34314018880982 0.21668434295363187
1652494185.2575448 14.02138626760636 -22.57153903195686 0.22041901794521096
1652494185.6562874 14.025455518250379 -22.902400922874946 0.22476954165115154
1652494186.0575418 14.03883112067857 -23.29469709267904 0.22798891333920063
1652494186.4589183 14.043933382604028 -23.730025192969034 0.2303635739435815
1652494186.8589115 14.050459557337431 -24.201718897300747 0.23227546040726027
1652494187.2590063 14.053178177521318 -24.759741941131455 0.23219777944082204
1652494187.659038 14.039040757147651 -25.313931209059774 0.2290303855622557
1652494188.0578487 14.031445388825077 -25.80809263989201 0.2226698718386491
1652494188.4579816 14.038432431085347 -26.299429055832196 0.21381357864603592
1652494188.8566654 14.061681201880832 -26.791656228375395 0.20454702003681313
1652494189.258061 14.080342121497127 -27.36254132313117 0.19869229100803948
1652494189.6596313 14.07299317407932 -27.956709186169583 0.18498120760872167
1652494190.0578392 14.044531651937191 -28.508807544582446 0.17981651828530307
1652494190.4579535 13.979001191580783 -29.052040983881923 0.16678893598649527
1652494190.857936 13.888176599897289 -29.553176897503484 0.16239208036606118
1652494191.257942 13.760003024041229 -30.028106903912104 0.1647928015579315
1652494191.6566412 13.62944581981265 -30.566891316391555 0.17509347698310068
1652494192.0566359 13.48184472187482 -31.113876616112158 0.1861596981574235
1652494192.45667 13.31995009204323 -31.72058625353909 0.17469263781030342
1652494192.8566804 13.158624079774455 -32.296116029939455 0.16579513216351294
1652494193.2566702 13.025854551713469 -32.851895318908525 0.1637422473070956
1652494194.0566802 12.811166077045979 -33.92115743709102 0.14283179013888142
1652494194.0566802 12.811166077045979 -33.92115743709102 0.14283179013888142
1652494194.45672 12.70891239679152 -34.48900975399217 0.1380701504806489
1652494195.256261 12.487702990278754 -35.661818281749916 0.12281149372738745
1652494196.0575264 12.272261089323266 -36.84952490959631 0.10964681183148497
1652494196.4575143 12.163159443744544 -37.443512077056305 0.09749894080177562
1652494196.85626 12.06257514376162 -37.99478018840807 0.11076468869215636
1652494197.257553 11.964324485046234 -38.60154713005285 0.10857646729449877
1652494197.6575208 11.892387523464528 -39.21818667722923 0.10027114565349546
1652494198.0575018 11.872315426245027 -39.8035642410327 0.11066819261994255
1652494198.8574429 11.900668899769059 -41.01362580418564 0.10916736815382594
1652494198.8574429 11.900668899769059 -41.01362580418564 0.10916736815382594
1652494199.257592 11.961516204919587 -41.61307422831665 0.11027445083536605
1652494199.6576557 12.0443398291963 -42.224110767447826 0.10588331208358787
1652494200.0564888 12.152647722984693 -42.80857889428097 0.1050149481699979
1652494200.4576535 12.29110129961095 -43.40996659796683 0.10461288274094312
1652494200.8564055 12.439956611028226 -43.98890062740882 0.1066249696636381
1652494201.2576764 12.620193864877702 -44.55575884165252 0.11210129015031428
1652494201.6576843 12.828417422726424 -45.113288402431635 0.1197339780737276
1652494202.0578678 13.052071046568482 -45.65972591652878 0.12938521500576178
1652494205.2581823 15.093877125329008 -48.90736382618093 0.10030974800961046
1652494206.0568805 15.71388924742265 -51.08719764685905 0.08547096286539924
1652494206.0568805 15.71388924742265 -51.08719764685905 0.08547096286539924
1652494206.8579445 15.867902047054852 -52.00963583474901 0.07911114349604635
1652494207.2579446 15.89605575580799 -52.56526066487266 0.07732953241483193
1652494207.6579916 15.902849697959613 -53.15428856841012 0.07097277505132665
1652494208.057925 15.902948617267313 -53.746832978387104 0.06636066660413267
1652494208.8579226 15.869952404675516 -54.93347163444553 0.05487729820554611
1652494209.257958 15.834110991870581 -55.517850068650674 0.05170253608240394
1652494209.657972 15.779701268449838 -56.110995731931965 0.041732088508989344
1652494210.0579522 15.720516105259922 -56.70045492017996 0.03602922564974662
1652494210.4566522 15.659748549414985 -57.28877009031238 0.03286387250226934
1652494210.858017 15.599224946723648 -57.862549231445485 0.038862173040924396
1652494210.858017 15.599224946723648 -57.862549231445485 0.038862173040924396
1652494211.2581894 15.535334155978529 -58.47207537774179 0.028564597678741678
1652494211.6581721 15.465862423750078 -59.07331021021262 0.018808960366884096
1652494212.0581748 15.377291931949287 -59.65972575370753 0.006024432227095054
1652494212.4581351 15.29327973874599 -60.2493181467467 -0.001982361400525906
1652494212.8581297 15.228086281299642 -60.88625897282367 -0.02016720795957535
1652494213.2568808 15.220963359608948 -61.473826879810844 -0.03242858092772846
1652494213.6582973 15.283134390356636 -62.01007128144846 -0.035125101123108925
1652494214.057038 15.40587744559194 -62.57569960051154 -0.032797763106286154
1652494214.8582625 15.791555545691232 -63.71223312875965 -0.030317051514857807
1652494215.2570176 15.990379962925026 -64.26993446828156 -0.027796654943581973
1652494215.6570408 16.198569052753665 -64.83589446479614 -0.026728269396791265
1652494215.6570408 16.198569052753665 -64.83589446479614 -0.026728269396791265
1652494216.0570424 16.419561584875122 -65.39694118436088 -0.027406612284320786
1652494216.4570427 16.64652866284376 -65.94492381798115 -0.023672282929476582
1652494216.8570414 16.88917386956329 -66.50256579144786 -0.01952794619012429
1652494217.6570735 17.342890563089703 -67.59167804308137 -0.00879080166106614
1652494218.0570278 17.53846796184291 -68.15256946650001 -0.011395220209501164
1652494218.4570787 17.704292481790944 -68.7059127363587 -0.014032013637569604
1652494218.8570487 17.849579361036085 -69.27032075639336 -0.01589107519681529
1652494219.6570606 18.09931170924118 -70.41735153434115 -0.019779383719086448
1652494220.057032 18.227863388350197 -70.9960913632784 -0.01890694855758339
1652494220.4569042 18.355724748637577 -71.59382595064788 -0.023291075207038547
1652494220.8569381 18.470665883229437 -72.17328555886377 -0.02844234421379161
1652494221.6569238 18.696359580199196 -73.3510184904894 -0.03740128862339255
1652494222.4568994 18.89218511563758 -74.51423343918255 -0.041039280722566227
1652494222.4568994 18.89218511563758 -74.51423343918255 -0.041039280722566227
1652494222.8567843 18.976973577578597 -75.13127376584714 -0.053208513678221936
1652494223.2569404 19.053906914857617 -75.7184255572875 -0.06627491836727009
1652494223.6569293 19.133348968566438 -76.31323619706387 -0.07849406722905106
1652494224.0569243 19.199113096214603 -76.9103145345344 -0.09187385279856203
1652494224.456935 19.26292433860487 -77.50456935895272 -0.10597706363449315
1652494225.2569153 19.37791331762743 -78.67793526550194 -0.1255836597676568
1652494226.056904 19.484709327407465 -79.84361346189615 -0.1382597719052715
1652494226.4569013 19.54722508412989 -80.42598540780787 -0.1382614318224932
1652494226.8569655 19.622367073990127 -81.01617552881171 -0.13775089948653294
1652494227.2569258 19.6978818876676 -81.60862892241911 -0.1393209560647841
1652494228.0566847 19.87893994014282 -82.79635537629048 -0.1521511129757901
1652494228.4579277 19.98424170888474 -83.36096483738118 -0.14450634706098714
1652494228.8566444 20.08634521543204 -83.9785838207807 -0.14821410326132795
1652494229.256628 20.179121628593784 -84.54429471225743 -0.1511914986585297
1652494229.6565483 20.27168132363618 -85.12282836035271 -0.15099532913520652
1652494230.0566719 20.39771433135595 -85.70245044191742 -0.14883477276835766
1652494230.456668 20.536763907570702 -86.24697120485112 -0.1306118132610121
1652494230.857981 20.729496036122832 -86.80121957517133 -0.10553638660534267
1652494231.2567642 20.898579017443595 -87.33537492913901 -0.05983663615745592
1652494231.6567962 21.035325695559244 -87.82998238333963 -0.003909773531012163
1652494232.056758 21.132335852971785 -88.35338336587941 0.041865430837275154
1652494232.056758 21.132335852971785 -88.35338336587941 0.041865430837275154
1652494232.456671 21.2104450066752 -88.95225616521756 0.05898134538212569
1652494233.6579442 21.21714314216554 -90.57850595143421 0.0648423826999791
1652494234.0579205 21.118675894626456 -91.05966684010005 0.04849242324779579
1652494234.4580183 20.958310044223573 -91.48058962764304 0.028871138113054515
1652494234.8568912 20.77257680979026 -91.81110954164949 0.02313040313063914
1652494236.0581439 19.75277630917485 -92.62335399236325 0.009651841893166029
1652494236.858156 18.689586490157083 -93.03448656367479 -0.01213011309147647
1652494237.25695 18.11303379286099 -93.15903456494091 -0.034648837225864995
1652494237.6568263 17.54193070836415 -93.24976301801395 -0.05175862634003432
1652494238.056894 16.976046739328062 -93.30577077091263 -0.06136911620474912
1652494238.4569438 16.400523049894886 -93.32996510246596 -0.06853931684910614
1652494238.8569307 15.80975841741575 -93.32902353213932 -0.08155624906358011
1652494239.25689 15.255242362429705 -93.30516357071244 -0.08470475670856169
1652494239.6568828 14.692976647021467 -93.27015081268738 -0.08214857139176375
1652494240.0569215 14.11322185788972 -93.22681326063434 -0.07665082793605499
1652494240.4569557 13.529034347089166 -93.19052187252869 -0.07117392998980426
1652494240.8569863 12.926729467671514 -93.14894269313939 -0.06792966931251809
1652494241.2581234 12.325266260070023 -93.09721210071189 -0.0698194804554187
1652494241.6566353 11.719275875866096 -93.02558385937238 -0.07763360535647496
1652494242.056496 11.110242227441056 -92.94290430694085 -0.09335996172750885
1652494242.4576416 10.520534688537502 -92.84732218251361 -0.11067183646249198
1652494242.8577578 9.954673714367019 -92.72851078795495 -0.1255548089883502
1652494243.2578936 9.415857682872435 -92.5609859575184 -0.13960413308169212
1652494243.6580086 8.887739278368251 -92.36549904198003 -0.14963225254842488
1652494244.4568994 7.842429686521726 -91.87555987822606 -0.17146620117156824
1652494245.2568784 6.852116599629518 -91.31404117216526 -0.1755446850710821
1652494245.6568947 6.37303582610145 -90.99547085901028 -0.17679975754442712
1652494245.6568947 6.37303582610145 -90.99547085901028 -0.17679975754442712
1652494246.0567744 5.907120061895519 -90.65947858047987 -0.17595350002367194
1652494246.4579532 5.456159518779977 -90.29832802954769 -0.1778380093357395
1652494246.8566678 5.007538059235834 -89.93657265854412 -0.1776865246181454
1652494247.2566798 4.56366371104955 -89.56369059957787 -0.1766733729228393
1652494247.6566856 4.1272896680929065 -89.18575742018041 -0.17071208065999413
1652494248.0566657 3.7037432718527086 -88.79092249719021 -0.16646218733526802
1652494248.456979 3.311346233925377 -88.3995247906529 -0.15500524080375583
1652494249.2569084 2.4947472883280355 -87.51746952087416 -0.14912191736452424
1652494249.6569376 2.1032519906812794 -87.05537066009643 -0.15591140224615357
1652494250.857635 0.9615608638376258 -85.5603584860655 -0.26064689155747267
1652494251.2576425 0.6335811661205639 -85.10485185418102 -0.2679793742026822
1652494252.0578704 0.005376839442050141 -84.18901149541668 -0.25710884522000116
1652494252.4579585 -0.30097700740384425 -83.7329334601998 -0.23055278542138974
1652494252.4579585 -0.30097700740384425 -83.7329334601998 -0.23055278542138974
1652494252.8566914 -0.5941260698781505 -83.25254109199253 -0.20936825634244596
1652494253.2566764 -0.8743935583827493 -82.77628387316857 -0.1794426733514323
1652494253.656635 -1.1550755070996743 -82.27612779239877 -0.15812474623138043
1652494254.45663 -1.7055910747332987 -81.21461549792215 -0.14393765183493235
1652494255.656903 -2.425794870901342 -79.59004862404358 -0.13798373753335866
1652494256.4568636 -2.892125977463323 -78.51686348249834 -0.11857697488056668
1652494256.856873 -3.111603185112344 -77.9826094687117 -0.10599402835539476
1652494257.2569122 -3.300467344709368 -77.46324560647352 -0.08653118370840748
1652494258.4566748 -3.6002861043281484 -75.86797356264455 -0.04368913883075461
1652494258.8566756 -3.5681032946846116 -75.35828672335309 -0.040470193184199824
1652494259.2566934 -3.4975049402876763 -74.86896502421283 -0.028170190739174435
1652494259.2566934 -3.4975049402876763 -74.86896502421283 -0.028170190739174435
1652494259.6567662 -3.3609259942744387 -74.30060517770912 -0.02439494364061085
1652494260.0567446 -3.2515256848787146 -73.75954544113505 -0.0297503106646292
1652494260.4566326 -3.16999299202579 -73.24578955606813 -0.029769681611595197
1652494260.85668 -3.0915767278153865 -72.69973708894634 -0.03787759912224193
1652494261.2566793 -3.0398482285773056 -72.18082197905764 -0.03955017327831818
1652494262.4572423 -2.8261830022727708 -70.42920695754434 -0.022841102708106048
1652494263.257106 -2.607989390294307 -69.25617745531484 -0.019164813599972644
1652494263.6569877 -2.4940896284818805 -68.65501693560796 -0.021851361809645246
1652494264.056942 -2.399005264748432 -68.03142153564866 -0.02915337922780082
1652494264.4575512 -2.353530172815262 -67.4432053488909 -0.03953810542828701
1652494265.257509 -2.242342495466154 -66.26350257377973 -0.07607211388889112
1652494265.6575253 -2.186854998917383 -65.68937378127299 -0.0770606658594517
1652494266.0575492 -2.1274385756368943 -65.09297495090905 -0.08424072046226086
1652494267.2575383 -1.9782769875237776 -63.33620819019994 -0.06872543311708959
1652494267.6575742 -1.9343483109194892 -62.74304466813701 -0.06722433478573323
1652494268.0576024 -1.8980902886762223 -62.13287929508062 -0.061367007619480676
1652494268.4575164 -1.8731094519548037 -61.498086106394126 -0.06810876627398035
1652494268.4575164 -1.8731094519548037 -61.498086106394126 -0.06810876627398035
1652494269.2566497 -1.827077294244745 -60.32086590550923 -0.07855516080515584
1652494270.0566392 -1.7031503768597283 -59.11764023230598 -0.10463721064024878
1652494270.4566708 -1.6133571952503978 -58.542725150159455 -0.11727460031045572
1652494270.8566344 -1.5339289193904797 -57.99031642869988 -0.11437880813920506
1652494271.25663 -1.4729039953692897 -57.45072795770354 -0.10402372961549242
1652494271.6566238 -1.4296284116585447 -56.95482730646882 -0.05992347312581279
1652494272.0564845 -1.3599409695452493 -56.41072987271359 -0.027248215196170607
1652494272.4576156 -1.264544388252908 -55.766958055161844 -0.03701053116904571
1652494272.857513 -1.1685808860945563 -55.169122561082276 -0.04093471588987385
1652494273.2575202 -1.0820888542502232 -54.595298204583045 -0.028918018636948685
1652494273.6575775 -0.9862774074352778 -54.00077445757099 -0.030820109732868223
1652494274.4575105 -0.7855298270072133 -52.847836310059904 -0.022464079380487424
1652494274.8574145 -0.6774285943832439 -52.24590104807104 -0.021879080697375347
1652494275.2573965 -0.5790467821284615 -51.64967043026064 -0.02383459964304381
1652494275.6572766 -0.472640289981328 -51.07685121170401 -0.020936290454940255
1652494276.0571494 -0.35961717866316434 -50.50796674034015 -0.015137099405272414
1652494276.4571412 -0.2524454907181948 -49.9427098281392 -0.0028800988430911154
1652494276.857149 -0.14304405905458495 -49.34150134136688 0.0033858330755252228
1652494277.258381 -0.01353706924815512 -48.74466000644321 0.00047971952016100106
1652494278.0568836 0.21870096698964758 -47.64654282080548 0.02680217823766359
1652494278.4568832 0.32795804676245766 -47.020015054888276 0.027294075927884333
1652494278.8594136 0.40903197767849875 -46.35084413670983 -3.644250769170576e-05
1652494279.260675 0.45466006906149303 -45.82864428984929 -0.008174458853766789
1652494279.6594555 0.439889821418717 -45.45243173106037 -0.0010889762686468393
1652494279.6594555 0.439889821418717 -45.45243173106037 -0.0010889762686468393
1652494280.857928 0.1779373993756792 -44.26402127837876 -0.01793837698514214
1652494281.257975 0.007440163177356851 -44.01897224377262 -0.0031454924899737974
1652494281.658045 -0.3272721320686216 -43.58392981381546 0.016464435995115462
1652494282.0581605 -0.7079917386230896 -43.09497545725331 0.024923400719719845
1652494282.4594212 -1.1076107094915315 -42.59013653239316 0.014821219775424391
1652494283.6581273 -2.3122962187241782 -41.22521679455832 0.022345682471545978
1652494284.0581212 -2.7313448143775076 -40.776540553482356 0.018572182966704195
1652494284.458051 -3.1704211785535428 -40.3432292506341 0.01522613946251725
1652494284.458051 -3.1704211785535428 -40.3432292506341 0.01522613946251725
1652494285.6579583 -4.46614054736175 -39.11138279820402 0.03229032302127011
1652494286.057987 -4.897033769514646 -38.6985438196607 0.03185772488071559
1652494286.45807 -5.301382026018214 -38.279500846215306 0.040292220346703475
1652494286.8581593 -5.660984781486054 -37.84170311173685 0.04353530181661412
1652494287.2582648 -5.94864581729426 -37.40219091503473 0.03435090475638103
1652494288.0582464 -6.367102171683683 -36.53501701779405 0.037405520056941054
1652494288.4581456 -6.55235848415332 -36.05151105996628 0.0475046641841528
1652494288.858162 -6.744347785067095 -35.50064259533138 0.05747440182957853
1652494289.2581248 -6.923462123042814 -34.93356220079737 0.06327831466263309
1652494289.658083 -7.089878219959889 -34.380967005231426 0.07644785673633192
1652494290.0580375 -7.221332213764889 -33.806709708224524 0.07547587308854138
1652494290.8581424 -7.329405941225016 -32.639837246039 0.06116016108217155
1652494291.256882 -7.313703897903952 -32.06911502371295 0.06175906293725346
1652494291.6582646 -7.280688528456782 -31.483469959777196 0.061901003284757665
1652494291.6582646 -7.280688528456782 -31.483469959777196 0.061901003284757665
1652494292.0581367 -7.226031748629895 -30.9053235593681 0.05846583527176499
1652494292.45805 -7.1292669798925346 -30.349470695283966 0.06629249820360619
1652494293.258167 -6.8512197010084925 -29.236285461571214 0.08108021549765142
1652494293.658157 -6.7003790862982076 -28.660258569334054 0.0832078264887558
1652494294.0581555 -6.532458592958319 -28.081031790987005 0.07858404591180775
1652494294.8582711 -6.151243363692981 -26.986704450811168 0.08567771498442792
1652494296.0581427 -5.45732859030521 -25.346080182685455 0.08975588352902526
1652494296.4582238 -5.205019067910836 -24.81123757456777 0.08959690789668356
1652494297.2581775 -4.667172674406904 -23.76928241143638 0.08703105441734424
1652494297.6580577 -4.388201678835523 -23.255607451542538 0.09508536533990647
1652494298.0594118 -4.095618577481405 -22.73736727026682 0.09078797527171736
1652494298.4585254 -3.7991326468543427 -22.242108815578902 0.09584509531854107
1652494298.858079 -3.4952443957650345 -21.76054353618699 0.11114827071550115
1652494299.2581594 -3.1742828483534726 -21.261527224094714 0.11576026335092778
1652494299.6581826 -2.842359076074157 -20.767983344183513 0.1165671639993675
1652494300.05815 -2.528206915959032 -20.284255724213637 0.1348780677019519
1652494300.458182 -2.1975114710107793 -19.749742456772694 0.13155292108347016
1652494300.858156 -1.9037823863209606 -19.206318431969695 0.13150546150803444
1652494301.2581766 -1.636368554478583 -18.649827470322677 0.12421407328410511
1652494302.8581328 -0.8164739802469043 -16.443353179954826 0.14673999512172223
1652494304.057955 0.007905424076355416 -15.006407269146688 0.14822623637016838
1652494304.4579475 0.32850389587490625 -14.584755984893969 0.15329368818165373
1652494304.8579404 0.6912305285584139 -14.182131905186896 0.153932289581518
1652494305.257989 1.1318668519291037 -13.798487116542205 0.14575118336848175
1652494305.657939 1.5782492606163867 -13.440742681662961 0.13507454215879133
1652494306.0579116 2.0402585935778106 -13.097502183312018 0.1321374438125463
1652494306.4567883 2.4792152080629677 -12.767594245780115 0.14291213922856888
1652494306.8581378 2.927257887300155 -12.480357234206599 0.16371983591328668
1652494307.256879 3.443539970207924 -12.188465755128183 0.17012194124203428
1652494308.456855 5.042610376545753 -11.49337957914938 0.15809380156900812
1652494308.456855 5.042610376545753 -11.49337957914938 0.15809380156900812
1652494308.8581645 5.575935705080516 -11.333885344772845 0.16925427024690134
1652494309.2581484 6.126840250521308 -11.205851500121888 0.17987860492154725
1652494310.0581334 7.270140546925438 -11.059037084342757 0.17694036958900153
1652494310.4568818 7.80275194670509 -11.067739985945359 0.1792360161525673
1652494312.457946 10.23351041141283 -11.970723703404119 0.21598916954379188
1652494312.457946 10.23351041141283 -11.970723703404119 0.21598916954379188
1652494314.056556 11.825393749407905 -13.756222289954783 0.22082146208153558
1652494314.4551306 12.0413648884548 -14.130722709691383 0.22560354991094705
1652494314.8575397 12.390743356587164 -14.696108129215972 0.21970903510451503
1652494315.256258 12.60252681228468 -15.14200395230033 0.21469546560860828
1652494316.0562704 12.927603805299325 -16.203927638356113 0.21796593837765452
1652494316.456255 12.990244906695487 -16.748874898773366 0.21978969210186017
1652494316.8562515 12.993568780524017 -17.317937381529205 0.21560344570255952
1652494317.2575643 12.953477091525222 -17.906226119742488 0.20723328695541973
1652494317.2575643 12.953477091525222 -17.906226119742488 0.20723328695541973
1652494317.6562648 12.88304679584503 -18.50084989139941 0.19194104952580407
1652494318.0562344 12.79146204728727 -19.072231601278844 0.18297512344016176
1652494318.4561603 12.683048676742615 -19.635212186993325 0.18047330297836553
1652494318.8561661 12.559589809576423 -20.182550862118127 0.19254496572405014
1652494319.2561553 12.406188478088456 -20.74389556842017 0.20031009733327287
1652494319.6573973 12.246121063086049 -21.314766683236712 0.20018806503368505
1652494320.056116 12.09617774193895 -21.88929344402398 0.2010664670930385
1652494320.457368 11.922968983337869 -22.44122398627576 0.20738171469727643
1652494321.2572448 11.511001888256994 -23.52674313578826 0.2122703420877047
1652494322.057292 10.967798911915361 -24.55865067750303 0.20205637661226336
1652494322.057292 10.967798911915361 -24.55865067750303 0.20205637661226336
1652494322.4560766 10.649656839581755 -25.047524784650868 0.1931861331882287
1652494322.8573222 10.319056601467596 -25.540912977389382 0.18741140323959454
1652494323.6560254 9.615744764611804 -26.486236303631067 0.1743604962364647
1652494324.0547447 9.2528663306266 -26.951153286292147 0.16938217902308347
1652494324.4560306 8.864492973375556 -27.402754497237375 0.15951613496783867
1652494324.8560395 8.47545872878665 -27.84483560833212 0.15068972202218453
1652494325.2572849 8.084461470927028 -28.29705009258015 0.14660891339740506
1652494325.6572895 7.690585608010723 -28.791593142709083 0.137847292640302
1652494326.0572314 7.348369565215917 -29.290737216883123 0.13211603147247822
1652494326.4559379 7.039233731280882 -29.816522157838698 0.1221385999053993
1652494327.2560742 6.56164158948744 -30.923700499212465 0.11009730441804359
1652494327.2560742 6.56164158948744 -30.923700499212465 0.11009730441804359
1652494327.6560953 6.48251034980327 -31.41377230534141 0.10699053508122594
1652494328.0585039 6.49222297157303 -31.863727743177975 0.11118952315324751
1652494328.4585013 6.60699456285753 -32.365789986436326 0.11750782204323719
1652494328.8560183 6.753431333518577 -32.82720777677691 0.11552498588417964
1652494329.656003 7.511836429163221 -33.95282127393564 0.11298889795517247
1652494330.4560733 8.352078065148977 -34.862311542159894 0.1078393902547301
1652494330.8550653 8.793537194363758 -35.28954514080536 0.1043508327022306
1652494331.254981 9.232121017519976 -35.69506352541957 0.1089802700696911
