1652454442.9714088 -4.114841404800224 65.95691097355902 -0.14167170521695882
1652454443.3714023 -4.33704920566106 65.4019735912377 -0.1310415686698436
1652454444.1701145 -4.81790368799475 64.30929924191769 -0.11859064317172258
1652454444.571492 -5.067827264700838 63.77173363404364 -0.11276064467271549
1652454444.9703143 -5.325387493350554 63.21984874505448 -0.11398461921459457
1652454445.3702765 -5.588865146130104 62.68317310104027 -0.11283900472703332
1652454445.3702765 -5.588865146130104 62.68317310104027 -0.11283900472703332
1652454445.7713745 -5.839045596266892 62.161210113574185 -0.10047605895408623
1652454446.1712806 -6.0983394278335155 61.63351088794143 -0.09243119211716747
1652454446.9725888 -6.652624900548794 60.559705371515335 -0.09214515452910171
1652454447.372531 -6.916869256427155 60.04366900828587 -0.08414181387545497
1652454447.7725315 -7.194129242077231 59.521890813995086 -0.07660525252323211
1652454448.1713595 -7.470495521682331 58.99681071137826 -0.0715477105019598
1652454448.5713484 -7.743658447331811 58.495448222265836 -0.05987860850900334
1652454448.9724667 -8.035983972687184 57.981683574521014 -0.04799528494458766
1652454449.3723521 -8.327527705797785 57.47381390992807 -0.03451033839091974
1652454449.7711897 -8.621707838027142 56.973921018365004 -0.019785198281508792
1652454450.1712835 -8.92782906605919 56.45647030240835 -0.009952944910327916
1652454450.1712835 -8.92782906605919 56.45647030240835 -0.009952944910327916
1652454450.5702012 -9.222061489684883 55.91190332132669 -0.003538618265266663
1652454450.9702675 -9.470267148756378 55.36453073823344 0.007407695351200144
1652454451.3702474 -9.70181788341879 54.78791211373087 0.012796315037549244
1652454451.7702444 -9.89210848297241 54.21674739536206 0.013893661688197084
1652454452.171481 -10.036382828203635 53.65060500798566 0.02070372022029765
1652454452.9715016 -10.209931451218313 52.47495189458408 0.02685116522708411
1652454453.7715158 -10.178378228387821 51.28398069633887 0.03874857728000464
1652454454.171505 -10.088147887558602 50.69591495488373 0.04493138164203406
1652454454.5714712 -9.985091914451264 50.09512110864067 0.04871877234558482
1652454454.9701586 -9.863192950280329 49.49315549870573 0.048882743797527384
1652454455.3712904 -9.724164619671413 48.89644300700723 0.04945018559096985
1652454455.771239 -9.599333349303159 48.32235107433918 0.050821331961006466
1652454456.1712804 -9.521152677357613 47.80774048850063 0.051678007954126665
1652454456.5712326 -9.430721169544299 47.24033291684415 0.05621191110728045
1652454456.9700365 -9.317550572560904 46.62905545602078 0.055204708327055305
1652454457.3715281 -9.205044471281607 46.043308760024686 0.05786267870499032
1652454457.7707536 -9.086527667819858 45.46024547914547 0.06006585659708641
1652454458.1707418 -8.975162024357797 44.898651410362625 0.07107304815930007
1652454458.5707822 -8.880903156758354 44.31376203107742 0.08236368695124249
1652454458.9707465 -8.766203853239332 43.67030161105632 0.06191648775393867
1652454459.770728 -8.61336709644204 42.59013470546441 0.10200476556316641
1652454460.17079 -8.430143401054877 42.07847093258423 0.08182061968027161
1652454460.5707254 -8.21445194022251 41.686994270008185 0.07617762148056152
1652454460.9706483 -7.959272379615005 41.35436669796044 0.08230746525749028
1652454461.3708217 -7.546592139615207 40.95273534072116 0.08256930660117502
1652454461.770807 -7.11924410726531 40.552933657243074 0.08517646594519253
1652454462.1707897 -6.658526382832097 40.16317709071937 0.09311490043951419
1652454462.1707897 -6.658526382832097 40.16317709071937 0.09311490043951419
1652454462.5708244 -6.165546260902037 39.791031072740424 0.09553301719758332
1652454462.9707942 -5.6674672638046 39.437724729933876 0.10304498441349545
1652454463.3708174 -5.15896089940318 39.08532503315306 0.09742031861427809
1652454463.770748 -4.654196157755258 38.75673788142276 0.10130973475100635
1652454464.1708012 -4.140352329401651 38.427124401249074 0.09888642051306318
1652454464.5707383 -3.615985322735064 38.11176329189446 0.09661906001626697
1652454464.9709299 -3.061002803355951 37.805720823471006 0.08542388007129009
1652454465.7708886 -1.9146399929969924 37.21224565597344 0.03173287579163797
1652454466.5708482 -0.8775134606714943 36.69129483164738 0.029930766171820666
1652454466.970804 -0.3425733648393674 36.43630096728668 0.02960255856404434
1652454467.3706236 0.21579179227826373 36.17647489277908 0.022240445072965354
1652454467.7704759 0.7563689812811241 35.89372329021628 0.007976590423539986
1652454468.1705177 1.2414442919956592 35.608324318839976 0.0024696079024733864
1652454468.570521 1.7062271623334926 35.3142005755034 -0.005345400254344379
1652454468.9705594 2.120957518251007 35.01254706704667 -0.0018019606336007188
1652454469.3705196 2.5148058078965327 34.6923051691187 -0.00028705531784609106
1652454469.770599 2.886225540282121 34.35902400881342 0.005787738717908386
1652454470.1707282 3.228138941141733 33.998722946030554 0.005601182601322807
1652454470.570784 3.5792928122399417 33.618964330615576 0.005446742551271949
1652454470.9707847 3.9272819183094594 33.219529612143624 0.007751185218133588
1652454471.3707507 4.2816442470031415 32.769631751627976 0.013361043104072101
1652454471.7707176 4.6275284057381025 32.29179110403027 0.012465711593115908
1652454472.1704903 4.91745517813211 31.795208384891176 0.011079365176691225
1652454472.5716007 5.139939025172421 31.32603799002282 0.020336433145749067
1652454472.9703906 5.250972458560874 30.93345225681805 0.036125199034478805
1652454473.3704014 5.2557967743874805 30.64797630451701 0.0486840926647472
1652454473.7716048 5.163915176375905 30.392932775280094 0.04706684956042874
1652454474.17035 5.012447702404687 30.176633114938753 0.031518090230792495
1652454474.570483 4.866823971192103 30.034937999718878 0.026865874399770368
1652454474.9717746 4.715402215339781 29.978047735348348 0.034840069984041766
1652454475.3705184 4.525846328669049 29.971265541724165 0.03611006389356011
1652454475.7704637 4.141086215619154 29.95389885076014 0.040461139950366765
1652454476.1703463 3.559881163171779 29.943463094001785 0.024776995352177367
1652454476.5702457 2.9659869940962 29.986180603550125 0.009310750990265071
1652454476.5702457 2.9659869940962 29.986180603550125 0.009310750990265071
1652454477.3712842 1.811403699701902 30.202604893074348 -0.013873835774531135
1652454478.171343 0.709576817178247 30.522310797751537 -0.015449325553377774
1652454478.57139 0.15004928895319125 30.67341302329745 -0.016346585664936908
1652454478.9701328 -0.38700677234638015 30.800901461778757 -0.0033593163255701275
1652454479.3702264 -0.9506584833492369 30.922061333849072 0.0015606612652017404
1652454479.7702317 -1.534481642850194 31.063234816415523 -0.00010806239513180826
1652454480.1702127 -2.0875458769171598 31.190685209912537 0.01910932293820783
1652454480.9702299 -3.1921280158781453 31.40399543490602 0.0726588032706117
1652454481.3714914 -3.7876091581168634 31.485325084143128 0.08163058627614511
1652454481.3714914 -3.7876091581168634 31.485325084143128 0.08163058627614511
1652454481.7713654 -4.379742408992536 31.53797780411155 0.08782351015913044
1652454482.1712596 -4.976199104911219 31.572448572634176 0.0771140550113952
1652454482.5713944 -5.565390223066624 31.60910383260253 0.07203482997150633
1652454483.3701324 -6.740964885790971 31.66818917203828 0.08704333267797133
1652454483.7713456 -7.337391263176853 31.6944891172702 0.09506615009696662
1652454484.1712306 -7.9592911026154045 31.731105122993227 0.08573904478353359
1652454484.571348 -8.49110213141366 31.78457448607694 0.10782451802619442
1652454484.9712605 -9.02913115246614 31.881445329441924 0.11149834457932148
1652454485.3712447 -9.516257897180266 32.011326281556514 0.10751381912477262
1652454487.3693886 -10.994801125823477 33.23723304749088 0.08807481919479956
1652454487.7694018 -11.14605945021541 33.61358846387662 0.10404099891708743
1652454488.172441 -11.276769452245388 34.11591076481618 0.08597325797775515
1652454488.56989 -11.422299242997758 34.685679852693 0.07229429268694419
1652454488.9699104 -11.552300918383354 35.24672223395278 0.07314360450265406
1652454490.1687157 -11.871216338127008 36.93847611679643 0.08893709356376485
1652454490.5687187 -11.9582616062467 37.513021283975306 0.08967938883131656
1652454490.968602 -12.019291091890425 38.09972147034113 0.09360033441604151
1652454490.968602 -12.019291091890425 38.09972147034113 0.09360033441604151
1652454491.3687286 -12.055927546393933 38.68191013349234 0.09869780011585265
1652454491.7693596 -12.076388057069215 39.26926627488862 0.10068892243110245
1652454492.169346 -12.075486307289177 39.850538953669 0.10716532149853712
1652454492.5692244 -12.049556529510143 40.46617364567666 0.10166191464754494
1652454492.9692376 -12.009344596275623 41.03262781269903 0.09921254887405401
1652454493.3692708 -11.970843867757916 41.58253210462632 0.10157840847895377
1652454493.7704978 -11.916399612023268 42.147443687229575 0.10123411997178847
1652454494.1705148 -11.867929742327341 42.71589819888661 0.10944669506307486
1652454494.569247 -11.81459791784161 43.32993019171316 0.11286062865999477
1652454494.970521 -11.73474786232919 43.97113588760145 0.092584571978122
1652454495.3731194 -11.674780563776089 44.48479864898572 0.1216399983024892
1652454495.7731311 -11.612348577812394 45.06310206638574 0.12324737198866242
1652454496.1706414 -11.533159150899078 45.71703442738304 0.09990076795716982
1652454496.1706414 -11.533159150899078 45.71703442738304 0.09990076795716982
1652454496.5692852 -11.476931512907694 46.32298154729445 0.0915650056757661
1652454496.969255 -11.428825866546319 46.918416341279425 0.08642785280145919
1652454497.3692627 -11.401199912690391 47.51619793658439 0.08518674103245123
1652454498.1692684 -11.390240076669254 48.74414777227416 0.07223425517776244
1652454498.5692697 -11.410026257620963 49.34254510641264 0.06782646916898796
1652454499.369374 -11.535042085067822 50.56160360853176 0.05482478870993247
1652454499.76936 -11.628076133975402 51.16195736563516 0.04928778313206088
1652454500.1693819 -11.731222633564883 51.75708145135249 0.04117882314885332
1652454500.5693738 -11.830880998132933 52.34417348413877 0.03382632537856792
1652454500.969374 -11.89594844082913 52.912510618769886 0.02801184215234423
1652454500.969374 -11.89594844082913 52.912510618769886 0.02801184215234423
1652454501.3694286 -11.919518457566305 53.4673322795931 0.03226269004447274
1652454501.7694025 -11.92527216846507 54.05377125183819 0.035292398357149674
1652454502.169371 -11.91025276520542 54.65214895867322 0.032923544849720515
1652454502.5693638 -11.874258091344558 55.228368756044375 0.034084577421916645
1652454502.9693608 -11.826370729501008 55.826324807616274 0.031436525061715015
1652454503.3693533 -11.75626954776007 56.42513464086039 0.02385259432059883
1652454503.769231 -11.670945103195223 57.016554919985246 0.014211002977412429
1652454504.1692348 -11.564425264344223 57.58815597384497 0.00830615670480886
1652454504.5692332 -11.434517324065759 58.15897841396785 0.002114922090264898
1652454504.9692228 -11.284101744836981 58.741804340040964 -0.010055421013899446
1652454505.369247 -11.118191717196837 59.30505133312093 -0.02247192441737972
1652454505.769266 -10.937702534305053 59.84358565709124 -0.024838996911603323
1652454505.769266 -10.937702534305053 59.84358565709124 -0.024838996911603323
1652454506.169278 -10.731320954776464 60.38208174427087 -0.02559866045377493
1652454506.569295 -10.514102300865133 60.92394839414085 -0.024139976238836652
1652454506.9692645 -10.284133639989605 61.46719392338311 -0.024142079963849095
1652454507.3693182 -10.051657172828357 61.994488475760704 -0.02026760122662216
1652454508.5693567 -9.256716217671034 63.585061170533294 -0.019477237598610142
1652454508.9694784 -8.956602534131136 64.11046421459946 -0.0264237168528417
1652454509.3694692 -8.653564632043647 64.62844237412311 -0.03530522558332272
1652454509.769339 -8.34171109611173 65.14505377441239 -0.04670590019458509
1652454510.1692379 -8.023649392772924 65.6665982688048 -0.06079006818961788
1652454510.5692463 -7.693464305244547 66.18026498735385 -0.07904093394256448
1652454510.5692463 -7.693464305244547 66.18026498735385 -0.07904093394256448
1652454510.9705164 -7.364324757835327 66.68660936961865 -0.09837773473605832
1652454511.3692665 -7.048287302206482 67.18064824229906 -0.11303085320474168
1652454511.769267 -6.737200822870356 67.67418444766065 -0.1209057633987734
1652454512.170484 -6.4109851830816424 68.17114946495886 -0.12884299042656489
1652454512.5692627 -6.082314638943743 68.6594892717207 -0.13684991014483863
1652454512.9692643 -5.758467925203114 69.13751187542258 -0.13917056382334564
1652454513.769224 -5.057231718675403 70.12335499248002 -0.15977018172820318
1652454514.1692052 -4.714952549141813 70.61594043819764 -0.17204342852270932
1652454514.5692217 -4.366181494623383 71.1072298981993 -0.18478120390977343
1652454514.9692647 -4.024701963480709 71.59057224416851 -0.19592713156990302
1652454515.3692405 -3.673560269478486 72.08345671270393 -0.20868218322171886
1652454515.3692405 -3.673560269478486 72.08345671270393 -0.20868218322171886
1652454515.7703714 -3.3103067893709905 72.58265827987086 -0.2269054025177553
1652454516.1702275 -2.9293095902993045 73.08420478279535 -0.26362313635798407
1652454516.5688584 -2.5747451508346444 73.5684732670011 -0.29626559512713124
1652454516.970109 -2.2404058833287834 74.02110288857732 -0.2993282656544244
1652454517.368876 -1.886329967065329 74.48297190759877 -0.310605652896642
1652454517.768862 -1.5188853891378287 74.97356109631517 -0.3322352193710272
1652454518.1701014 -1.1426159631519397 75.44508155297997 -0.3516563826786125
1652454518.9689913 -0.4229685367748246 76.37383176433636 -0.3755088037583203
1652454519.769005 0.3166283911816663 77.28159881105582 -0.3913028820309915
1652454520.1689963 0.6980449177305275 77.70765598321667 -0.3978048709757842
1652454520.1689963 0.6980449177305275 77.70765598321667 -0.3978048709757842
1652454520.5689015 1.1089466099093244 78.13253488829241 -0.40819813143513467
1652454520.9688573 1.5447076045677335 78.54186739912357 -0.42576707833236616
1652454521.3688576 1.9604499183048532 78.90794184882711 -0.4344882371973301
1652454521.768865 2.391862980014025 79.2520671657717 -0.4354282589481603
1652454522.1688893 2.864545672650138 79.58175548365193 -0.444486864531335
1652454522.5689151 3.354293541710497 79.85536542571144 -0.452715807533684
1652454522.9688933 3.8606124739549372 80.09110723390579 -0.45957282279234246
1652454523.368739 4.343801217642074 80.27213515136194 -0.45241072039273056
1652454523.768721 4.8620934140016985 80.41474845275799 -0.44253675059932
1652454524.169907 5.380037616317239 80.54538963386524 -0.4235070754901637
1652454524.5698993 5.908907084894807 80.60465499075482 -0.4008686365735121
1652454524.968779 6.426348614649186 80.605828195358 -0.3834698260590111
1652454525.3688686 6.860036815639752 80.53374987773651 -0.35007014356532046
1652454525.7689059 7.299175695135034 80.38811665419817 -0.3393179974765305
1652454526.5701303 8.13118331209214 79.88306898656482 -0.33319024642630013
1652454527.3689034 8.752048836002302 79.16594251680094 -0.3286685301925448
1652454527.3689034 8.752048836002302 79.16594251680094 -0.3286685301925448
1652454527.7689075 8.957738396349981 78.72815201344017 -0.3309122483812449
1652454528.1701217 9.12703156346809 78.24608632122393 -0.3241407974149412
1652454528.5701463 9.285555878841588 77.71134138271198 -0.31428554020455146
1652454528.968912 9.434588235660836 77.13991681286976 -0.30874658445815695
1652454529.7689054 9.594765639748555 76.05820472020542 -0.27152372974538563
1652454530.1689823 9.633507453086171 75.46200587826031 -0.25705943469296555
1652454530.5689738 9.650811947105389 74.88304373710757 -0.2461533155752847
1652454530.9688506 9.642345679701428 74.29418037354958 -0.23649846293271085
1652454531.3687327 9.612116286191302 73.70364104104134 -0.22787103005716774
1652454531.7687898 9.556324855457714 73.11049876767615 -0.22251926732490354
1652454532.1687436 9.499650292610493 72.54383240871852 -0.209991980606552
1652454532.1687436 9.499650292610493 72.54383240871852 -0.209991980606552
1652454532.968738 9.350425246466582 71.39373868250979 -0.1761697233426707
1652454533.3687449 9.317398029261721 70.83096403783775 -0.16017878033983451
1652454533.768744 9.31960806678116 70.34344188022311 -0.14156563679529052
1652454534.1687999 9.288580186954835 69.76946549597623 -0.128013823565898
1652454534.569998 9.219609111920395 69.20468551356835 -0.11677755531116762
1652454534.9688675 9.087341082492404 68.71736601873471 -0.1133154667235094
1652454535.368915 8.892444225689847 68.2944377812712 -0.10642280245232741
1652454535.7689006 8.632237265523415 67.88484218842473 -0.10718142800406824
1652454536.1689157 8.339373266233551 67.51309752702304 -0.11349909158273006
1652454536.568853 7.993688937722112 67.21280497220474 -0.11445647525774713
1652454536.9688606 7.615263795001752 66.96951448299502 -0.11581527073674375
1652454536.9688606 7.615263795001752 66.96951448299502 -0.11581527073674375
1652454537.368735 7.213213609166218 66.78824212525028 -0.11793683715147601
1652454538.9699044 5.204732823244498 66.60448913405145 -0.10499034434735752
1652454540.5699832 2.689216117866774 66.76372531812682 -0.2638444685390156
1652454540.5699832 2.689216117866774 66.76372531812682 -0.2638444685390156
1652454540.9699938 2.1903225305194916 66.7678970451995 -0.25016944414849374
1652454541.374198 1.659992396136559 66.79274371538483 -0.270394821155378
1652454541.7717857 1.179062419978358 66.80052563640223 -0.2465612435272057
1652454542.1716402 0.6881881652814243 66.79951436626398 -0.21879880852939537
1652454542.5729065 0.10386679993880676 66.78681255971219 -0.22188115265618552
1652454542.9703918 -0.44599792494894075 66.73112299860063 -0.20511897839325596
1652454543.3691711 -0.9729345624789616 66.66378217034728 -0.18724176375855442
1652454545.7694583 -4.262406419125213 65.66474503702936 -0.13204600689756535
1652454546.1694448 -4.781980047374347 65.3742605427197 -0.12032366063210817
1652454546.569397 -5.282657278570426 65.03564808489857 -0.11339004423946744
1652454546.9704978 -5.754116424594088 64.66325783664671 -0.10351625573163853
1652454547.3691053 -6.20560095245461 64.2439850848084 -0.10306848227138804
1652454547.7691035 -6.611679664227836 63.79483551231206 -0.10012512797425399
1652454548.1691186 -6.9710947756504495 63.30461225669561 -0.09038781854008965
1652454548.5691073 -7.282116101538165 62.79591284227767 -0.08475533973238383
1652454548.9691033 -7.531597630311531 62.27038656621079 -0.06813770197182015
1652454549.369495 -7.743665677295603 61.69583329043202 -0.06548395951305536
1652454550.1694694 -7.977830431733793 60.48904554319633 -0.06052596123726345
1652454550.5705914 -8.01424730367522 59.881319980687785 -0.055292446415875385
1652454551.769681 -7.7055824261075685 58.07485526828519 -0.047993838581191745
1652454551.769681 -7.7055824261075685 58.07485526828519 -0.047993838581191745
1652454552.1696784 -7.46623193751617 57.510040692390476 -0.045373843781911394
1652454552.5696964 -7.153625085618586 56.9799825067134 -0.048716512248546257
1652454552.96971 -6.757012150758317 56.51935949168025 -0.056106491046600926
1652454553.3696811 -6.292571895757469 56.11977660738553 -0.06004402712844417
1652454553.769698 -5.754161636841367 55.803746647802974 -0.07173751897425218
1652454554.1695733 -5.184092363638939 55.563369401579635 -0.08433865722012504
1652454554.5695403 -4.61464959865971 55.35648469544445 -0.08719888463757167
1652454554.969548 -4.022784549071307 55.176479653398204 -0.09257044562837344
1652454555.3695538 -3.419285079814202 55.03292673701492 -0.09554481120744154
1652454555.7695405 -2.8009285496889085 54.91206464138092 -0.10142181510803189
1652454555.7695405 -2.8009285496889085 54.91206464138092 -0.10142181510803189
1652454556.1696002 -2.1700006525470883 54.81672103281045 -0.11443661893093868
1652454556.5693054 -1.5478003762996586 54.73971217552271 -0.13822435389637952
1652454556.9705424 -0.9496608152384418 54.66557263950746 -0.1546653527231943
1652454557.369313 -0.40749192640731025 54.600734775087034 -0.13845395239576969
1652454557.770575 0.19166200586526116 54.50601128861935 -0.1550541232825537
1652454558.5705283 1.226962523105641 54.346969014993576 -0.09531120229557538
1652454558.9704123 1.7737695423866846 54.26245629817738 -0.05680085203346649
1652454559.3704064 2.407611954769191 54.14824355524077 -0.04482423313095707
1652454559.770538 3.039934242249288 54.04199971827885 -0.04866214042292352
1652454560.170553 3.6513715081756466 53.932137343709556 -0.05542466134192395
1652454560.5705345 4.260061131440217 53.81873155501579 -0.06491359043654851
1652454560.970531 4.8594406978050415 53.69546302801493 -0.08031826077535256
1652454561.370565 5.400784652346161 53.558760117932955 -0.08272695952979228
1652454561.7705822 5.911318334407721 53.41155281856765 -0.08537178812423676
1652454562.1705573 6.407822792883387 53.229619378094284 -0.09564812958817381
1652454562.570542 6.8528643635183855 53.02232313412922 -0.10631263673378044
1652454562.9705667 7.244555702759474 52.78517170082762 -0.11699463488485765
1652454563.3707154 7.675834694302349 52.487489774642576 -0.12352887337511978
1652454564.1693816 8.40851462665237 51.80053159812543 -0.12668942521407353
1652454564.5705082 8.64327556805183 51.47820658732902 -0.10716467125372775
1652454565.3702924 8.953092322229274 50.69385459102802 -0.09719681422800247
1652454565.3702924 8.953092322229274 50.69385459102802 -0.09719681422800247
1652454566.1702788 8.979161378765983 49.85298723470942 -0.10113705731870526
1652454566.5703638 8.839634205444618 49.47949546383785 -0.09840209271789666
1652454566.970434 8.644261170832227 49.02256540109481 -0.09756820132489952
1652454567.3704343 8.417226832246339 48.58820952612293 -0.09259737182903727
1652454567.7704248 8.129336053977578 48.19287010936567 -0.09264315677199175
1652454568.170526 7.784242334517042 47.805685834003256 -0.07671805231509099
1652454568.5705256 7.383903548383763 47.40099917895854 -0.05880969023796079
1652454568.970546 6.932672726172317 46.99292980227879 -0.055757402846607046
1652454569.3705344 6.481403729381231 46.5782828861642 -0.060179807210708314
1652454569.7705271 6.058055545767537 46.17015218859246 -0.0515278224981181
1652454570.1704535 5.6382648142583776 45.75995660092994 -0.04106080174105989
1652454570.1704535 5.6382648142583776 45.75995660092994 -0.04106080174105989
1652454570.9702117 4.787291192495623 44.90615128998581 -0.029063704181513023
1652454571.7714047 4.003840186538934 43.98743986890423 -0.010486107770203312
1652454572.1701608 3.633748064369165 43.5127361510956 -0.004146300869461217
1652454572.5714414 3.256333652874453 43.03902182663616 -0.008820749822996271
1652454572.9705276 2.8770432969064714 42.568856410005154 -0.01705103730368218
1652454573.3705573 2.4908709812189294 42.079239975128075 -0.02891037263336954
1652454573.7705324 2.101325650811699 41.583369525799945 -0.049547953924647364
1652454574.170531 1.7206679528364326 41.14080448726621 -0.055447092821314686
1652454574.5705433 1.3699639478653545 40.80074408113807 -0.053735095255777215
1652454574.9705474 1.1142042301554618 40.62003839559976 -0.04266878001422081
1652454574.9705474 1.1142042301554618 40.62003839559976 -0.04266878001422081
1652454575.3704746 0.8656675163072158 40.50142612709436 -0.02870157910819851
1652454575.7704275 0.5993437996798292 40.440533432304115 -0.007343111472955549
1652454576.1704066 0.3182887873588456 40.42713997714321 0.010078225033799543
1652454576.9704049 -0.7224545010917502 40.479814599705946 0.042130431217501485
1652454577.3704212 -1.312022308372459 40.53488797888901 0.05468899801606182
1652454577.7704203 -1.8871809402429314 40.61978116369574 0.06610400969990805
1652454578.1703298 -2.453437645620827 40.72461977775161 0.08398292694213598
1652454578.5703034 -3.0311490199401767 40.84933983039522 0.09568241167940622
1652454578.9703307 -3.615116337782837 40.99423472664721 0.09744575943438426
1652454579.3703237 -4.201689787461643 41.14486954049347 0.1007166901334384
1652454579.770313 -4.743922441660899 41.33515594908221 0.09888738502000716
1652454579.770313 -4.743922441660899 41.33515594908221 0.09888738502000716
1652454585.370932 -2.843932864667785 46.48896702142752 0.03226087563806451
1652454585.770942 -2.3758985036868623 46.860046271960705 0.018648453577041896
1652454586.172272 -1.8747365452639073 47.21795757048148 -0.004714927717708067
1652454586.5723443 -1.370176687939285 47.55083242218345 -0.023469631681743403
1652454586.972378 -0.850332640720886 47.85530088720661 -0.04850988355522151
1652454587.3754199 -0.30682004817693453 48.13710959797258 -0.08362885320005653
1652454587.7726564 0.22163723089432352 48.3679461023531 -0.11856876802308089
1652454588.1726635 0.55450284695128 48.46208678875872 -0.10604586603332494
1652454588.9726408 0.6008217832110674 48.48223667177409 -0.0749786424255521
1652454589.3714774 0.6105952710756029 48.48162057961917 -0.07791855407821996
1652454589.7714198 0.611101607187404 48.48226482954203 -0.07880797332202558
1652454589.7714198 0.611101607187404 48.48226482954203 -0.07880797332202558
1652454590.1714773 0.6115716952648604 48.48193274481697 -0.07878054171386262
1652454590.5714512 0.6117376263603518 48.48205977667278 -0.0785638548310679
1652454590.9714637 0.6117923097338362 48.48207557887458 -0.07845443647769951
1652454591.771412 0.6114092657803312 48.48314205362214 -0.0786613523960909
1652454591.771412 0.6114092657803312 48.48314205362214 -0.0786613523960909
1652454592.1728246 0.611391859111805 48.482972099852105 -0.0788391603989918
1652454592.5717943 0.6114057006662676 48.48338202298925 -0.07893288056144551
1652454592.9717715 0.6112635298444005 48.4835847614716 -0.07902304984545722
1652454593.3716536 0.611315180875458 48.482356375069884 -0.07885145511784725
1652454593.7716606 0.6113082485854164 48.48252854295566 -0.07865511487066226
1652454594.1716924 0.6113549448184052 48.482724102509124 -0.07889697274992719
1652454594.571824 0.6113095361562202 48.48269818558769 -0.07884797154510456
1652454596.5716677 0.6114809436710331 48.48331388062593 -0.079219875263708
1652454596.5716677 0.6114809436710331 48.48331388062593 -0.079219875263708
1652454596.9715438 0.6114874814736773 48.48216950435796 -0.07910003169405255
1652454597.3714666 0.6114370539698122 48.482695766738445 -0.07912939211585981
1652454597.7714198 0.6114350023846065 48.482846465894255 -0.07914103745822529
1652454598.1714497 0.6112002256599638 48.48080953922366 -0.07905741118893805
1652454598.571441 0.6111388954706314 48.48243029800703 -0.07922154396574077
1652454598.9714417 0.6110673992376405 48.48213509042637 -0.0792883872668885
1652454599.3716831 0.6112133557490438 48.48260460962783 -0.07919289604216129
1652454599.7717957 0.6113759687226867 48.482490555564496 -0.07907534536787131
1652454600.1717827 0.6114078175537045 48.48220657632002 -0.07910185140352546
1652454600.5717885 0.6114171032022817 48.482245141006146 -0.07926883456314646
1652454600.9717677 0.6113483741620414 48.482262042389564 -0.07908523154336972
1652454601.771532 0.6115195108747962 48.482245715194466 -0.07937839949542386
1652454602.1713958 0.6113967035186576 48.48190543128328 -0.07931022246182806
1652454602.5713506 0.6113972343368452 48.48288875269479 -0.07939226258813728
1652454603.3712797 0.6112312657344638 48.483447867654405 -0.07884633277930247
1652454603.7713215 0.6114663798341091 48.4834859418328 -0.07919033376552717
1652454604.1713169 0.6115531337790507 48.483065655955514 -0.07943358656727237
1652454604.5713184 0.6112763214721788 48.48235730564573 -0.07938217407039144
1652454604.9713135 0.6111129249569842 48.482481716282706 -0.07944585669607115
1652454605.3713272 0.6110813123728285 48.482294251404525 -0.07933883100449818
1652454606.1713097 0.6111730060737415 48.48236582521649 -0.07949252526181269
1652454606.1713097 0.6111730060737415 48.48236582521649 -0.07949252526181269
1652454606.5714848 0.6112018966184927 48.48244457188593 -0.0792848207523652
1652454606.9719195 0.6112389369549227 48.481678152025125 -0.079343642135906
1652454607.7722337 0.61137887570003 48.48237880174804 -0.07930734312217028
1652454608.172197 0.6113959281191583 48.48300927639312 -0.079402927369575
1652454608.572275 0.6114239678620592 48.48257527109867 -0.07938324644106062
1652454608.9711974 0.6113182569524369 48.48233377460413 -0.07933659315520594
1652454609.371245 0.6113629157948637 48.4834638238269 -0.07941596152298372
1652454609.771225 0.6112996870943626 48.48308887454651 -0.07920611930404922
1652454610.1724873 0.6114030414712524 48.48281952613422 -0.07905918222064676
1652454610.5724633 0.6114470505671612 48.48320679382312 -0.0791401763363227
1652454610.97245 0.6111265751006627 48.48276340989924 -0.07905542903227403
1652454610.97245 0.6111265751006627 48.48276340989924 -0.07905542903227403
1652454611.3726442 0.6111564238112024 48.48057008886858 -0.07956510009349277
1652454611.772799 0.6113848022891375 48.483801437975615 -0.07979663391268427
1652454612.1727862 0.6113555192030162 48.4832340385051 -0.07931970153172449
1652454612.5728247 0.6456385887734264 48.488054542312554 -0.07522300248064634
1652454613.3715692 1.0473621411962881 48.45571305766613 -0.0619234754936219
1652454613.7714028 1.335724841269176 48.42471258842089 -0.05532199611094615
1652454614.171272 1.7180543960683252 48.38663616970817 -0.040825307403236616
1652454614.5711625 2.2842957706016556 48.33906671058736 -0.02752391324757053
1652454615.3711667 3.5805810052376685 48.24344307876327 -0.05087585168742409
1652454615.7712288 4.202195740082566 48.25103694180066 -0.06389773642828236
1652454616.171279 4.746769027515143 48.30330958704389 -0.061384882597799506
1652454616.5712895 5.227710555548374 48.38617206338123 -0.05735591271080134
1652454616.9713156 5.650541801611329 48.50935827063461 -0.059905100892064495
1652454617.3713326 5.989274034027503 48.669303411360644 -0.06188665682994915
1652454617.7713046 6.302573782490931 48.88958743298841 -0.06609864268578108
1652454618.1713102 6.616541299310395 49.15952187506148 -0.06798061551307327
1652454618.1713102 6.616541299310395 49.15952187506148 -0.06798061551307327
1652454618.5713296 6.916026372110693 49.49759096676909 -0.06561022489212273
1652454618.971326 7.247803949167956 49.953208056936184 -0.06566379297504685
1652454619.3712828 7.613093430468901 50.46753253952396 -0.07326694753231025
1652454619.7712932 7.934411151178502 50.98584866942783 -0.07283421902198295
1652454620.1712768 8.274397494114904 51.55220821927595 -0.08709419504446636
1652454620.5725272 8.607893594284647 52.15100501598596 -0.14254183411785035
1652454620.9726515 8.880077858602569 52.668035846189184 -0.15412735645664782
1652454621.3714375 9.12550847525343 53.210073604918136 -0.15690089399591067
1652454621.7714057 9.362386826429528 53.72768311665837 -0.14089602900494919
1652454622.1726935 9.595083798343886 54.268724757555546 -0.132989354706408
1652454622.5726416 9.828311458101872 54.84070151379787 -0.13605286455907234
1652454622.9714358 10.0314474693933 55.40545284179327 -0.12834585037884824
1652454622.9714358 10.0314474693933 55.40545284179327 -0.12834585037884824
1652454623.3714557 10.205693265652908 55.97332387316973 -0.11747848712782932
1652454624.1714392 10.378250068853966 57.11624083617952 -0.10255921376858754
1652454624.5746503 10.38582317090303 57.54016032589714 -0.10007558064673763
1652454624.970937 10.262726650272594 58.3312072854284 -0.09953908183165086
1652454625.370919 10.138186436257364 58.73518264268504 -0.10462254469289645
1652454625.7722344 9.927493800789204 59.24683776277543 -0.11276103955476946
1652454626.1709075 9.655818838612237 59.69765099386311 -0.12095802904669886
1652454626.5739791 9.401776402920628 60.018174468092795 -0.1183630701061848
1652454628.1720538 7.480209031765153 61.18403873221243 -0.12402159396265047
1652454628.5714235 6.898249666200613 61.37077943999853 -0.12075398513145782
1652454629.3713975 5.705090647440727 61.70026424610609 -0.12471893377092025
1652454630.1712148 4.412505298252036 61.91460263934583 -0.15086134860540723
1652454630.5712233 3.814230741984691 62.0068359971809 -0.1828819272624563
1652454630.9711926 3.2511306230854053 62.098845491664314 -0.18886323574710853
1652454631.371206 2.613297039960635 62.17327071452888 -0.21613176731288586
1652454631.7724826 1.9197825796321233 62.21944818622159 -0.2784536258800069
1652454632.1724486 1.4837939965745477 62.24580319757913 -0.20813584613625308
1652454632.572466 0.997612445390903 62.28713301855187 -0.1674900548655236
1652454632.972437 0.3314697146041148 62.37433237434648 -0.17665870426105584
1652454632.972437 0.3314697146041148 62.37433237434648 -0.17665870426105584
1652454633.3711865 -0.29518871768452115 62.46381485661861 -0.19123186055670607
1652454633.775517 -0.8779696830242543 62.56174048438503 -0.19323401885364286
1652454634.1742058 -1.446062116526619 62.67686875514691 -0.19371668859364238
1652454634.5729718 -1.9615336020867815 62.80294410857947 -0.1657038173564378
1652454634.972928 -2.5184930746624516 62.94732212995877 -0.15091096067668197
1652454635.3729463 -3.1136927296887933 63.085331578704604 -0.14488022624170252
1652454635.771918 -3.7048463181626516 63.20920277629152 -0.1362540525237207
1652454636.171916 -4.292686849270687 63.31380302609052 -0.12387858829271092
1652454636.9718804 -5.46327536389002 63.50704198445659 -0.11048979350916255
1652454637.3718407 -6.032912141245198 63.612522661597964 -0.10062790835536392
1652454637.7717934 -6.498565668589428 63.75953094153596 -0.10035223194315668
1652454637.7717934 -6.498565668589428 63.75953094153596 -0.10035223194315668
1652454638.1705654 -6.8317102090216295 63.916569340067525 -0.09515509044868584
1652454639.7716773 -7.688299780684261 64.963338228144 -0.08658491130249105
1652454640.1716523 -7.729938951838136 65.30863869953512 -0.07382887059004473
1652454640.5719163 -7.719263974702642 65.63223918089555 -0.0858671002206225
1652454640.971928 -7.599370886089922 65.9671360569915 -0.09525072153481592
1652454641.3719308 -7.467740079235718 66.27653119907032 -0.09956823737869833
1652454642.1718233 -6.861010870911642 67.21675474310857 -0.1215495573184189
1652454642.5718124 -6.503548293674612 67.68070103800481 -0.1262546799342492
1652454642.5718124 -6.503548293674612 67.68070103800481 -0.1262546799342492
1652454642.9716647 -6.11896599560707 68.11693249254671 -0.1330851432342235
1652454643.371966 -5.717715398437768 68.52851307084346 -0.13480792701079436
1652454643.7719069 -5.2776293504670875 68.93916160182815 -0.1435700040478621
1652454644.571892 -4.342719384003338 69.68487716723995 -0.1669129315708792
1652454645.37178 -3.3703954560071736 70.33086448058965 -0.19531632848338637
1652454645.7718244 -2.8394214963013624 70.63963908083423 -0.211882817618719
1652454646.1717806 -2.279675310485189 70.93236988803966 -0.24865840094932534
1652454646.5717459 -1.7426790631860385 71.21244733572135 -0.290869212428881
1652454646.9716785 -1.23586656243954 71.47796849339841 -0.30073795212119214
1652454647.3716857 -0.7452691937585882 71.7468528028574 -0.28879665412642314
1652454647.3716857 -0.7452691937585882 71.7468528028574 -0.28879665412642314
1652454647.7715318 -0.21431788197826052 72.03108224558034 -0.2997314571932025
1652454648.1714272 0.333230057887441 72.3295681109425 -0.3170983853888596
1652454648.5726614 0.8597412206916744 72.62453421021425 -0.3297659401607715
1652454648.971421 1.3808795905057067 72.91430443695987 -0.34593285714411964
1652454649.3713994 1.8973227668422723 73.22043471792611 -0.3582774720960479
1652454649.7714014 2.4145788801925434 73.53301165647629 -0.3726818940139915
1652454650.1714058 2.917191988940637 73.85249241119121 -0.38688722682985693
1652454650.9714305 3.8885829509149303 74.52717881544709 -0.404141839963166
1652454651.3714745 4.3445170756854665 74.88881565230278 -0.4053311530043755
1652454652.57165 5.64779734774099 76.05269204066343 -0.38917532279533346
1652454652.9716516 6.059097174274669 76.48387210189438 -0.38111670078353455
1652454653.3717744 6.44378339468161 76.93667599282449 -0.37404654667485226
1652454653.7716339 6.811494493004787 77.396547631425 -0.36458365949642335
1652454654.1717532 7.1725456570489 77.87091789155001 -0.3553836891969273
1652454654.5716958 7.530206181984198 78.40102253168715 -0.3637500405793899
1652454655.371439 8.092461153930607 79.41003624336565 -0.35440215807896763
1652454656.171473 8.588102269519702 80.45581867642878 -0.2985525814414344
1652454656.57269 8.818131591598792 80.98456920543913 -0.2727251763360561
1652454657.37166 9.234134355663045 82.05375756725513 -0.20770237563953328
1652454657.771652 9.431509356831633 82.6291309454204 -0.1872239808440745
1652454658.171646 9.640351032808823 83.21586565957814 -0.1790297684248113
1652454658.5717573 9.829610475447211 83.7935167076668 -0.1685245250783914
1652454658.9716382 9.996918068619415 84.36793230413554 -0.15053749875727226
1652454659.3716407 10.155018614657514 84.96957430310962 -0.143791066568864
1652454659.3716407 10.155018614657514 84.96957430310962 -0.143791066568864
1652454659.771571 10.300012165055847 85.57834856064088 -0.1478853499235002
1652454660.9717867 10.5274632132313 87.38984743210136 -0.1290337671317532
1652454661.3718245 10.521900154553208 87.98504703381909 -0.11291249356134198
1652454661.7718005 10.500483211359253 88.6049959557703 -0.1107276286218215
1652454662.1720362 10.447274436070572 89.21351175844536 -0.10215792528205866
1652454662.572201 10.363875745298138 89.8123800323398 -0.09796875099416136
1652454662.9722013 10.237123851632937 90.43147492417535 -0.09858935783242373
1652454663.3721876 10.08586173857529 91.0170099724954 -0.09496089463880808
1652454664.1722047 9.69613010460803 92.19880267462322 -0.09507972930037925
1652454664.1722047 9.69613010460803 92.19880267462322 -0.09507972930037925
1652454664.5722277 9.456247380814503 92.73684664653571 -0.08986134819207753
1652454664.9722307 9.17480961321349 93.28208441202214 -0.08258207907747955
1652454665.372231 8.837368837237946 93.82562426327107 -0.08377634793563504
1652454666.172325 8.128387971196332 94.80905283178659 -0.0778731294253627
1652454666.5723212 7.732962000019029 95.2799438490694 -0.07807357057267669
1652454666.972438 7.327798848054428 95.70000790984825 -0.06705499479817209
1652454668.9731479 4.810323473550355 97.43168834793389 -0.03104305840243829
1652454668.9731479 4.810323473550355 97.43168834793389 -0.03104305840243829
1652454669.7719345 3.6222226641075963 97.91386730054896 -0.06608832505543533
1652454670.1719003 3.050514825817011 98.07660021338236 -0.06207387225193847
1652454670.5719068 2.455185947996874 98.19334302650512 -0.055891417614268496
1652454670.9719214 1.806557775354804 98.28575418934486 -0.07181611222588208
1652454671.3719285 1.1905780502335261 98.3156436213145 -0.07767054277215449
1652454671.7719212 0.6288088550013455 98.31273778504375 -0.05251749785385207
1652454672.571906 -0.6015649612721816 98.1710611090341 -0.048062998079638763
1652454672.971913 -1.2054708952251048 98.03839446783223 -0.048170133633976514
1652454673.371943 -1.8187678746624911 97.84746476056127 -0.053248273266055246
1652454673.7719133 -2.3987066901987077 97.61785286853043 -0.060692871086683586
1652454673.7719133 -2.3987066901987077 97.61785286853043 -0.060692871086683586
1652454674.1721811 -2.9472019314254894 97.33548916072422 -0.0659678722186113
1652454674.5726995 -3.45685647742431 97.02548051239111 -0.0642272586442848
1652454675.771447 -4.813097902214203 95.81363483808519 -0.04971777558991178
1652454676.1726787 -5.162110857666143 95.2935312960613 -0.047621552729005284
1652454676.5714176 -5.423466702181031 94.80959064293165 -0.04588226758495012
1652454676.9726455 -5.604777952532729 94.28432502940919 -0.03768308472004048
1652454677.3726575 -5.6983046910443775 93.71733280115828 -0.03075192082213929
1652454677.7726448 -5.724636329524927 93.19679241618846 -0.02322228418305816
1652454678.1739364 -5.742426291026625 92.5996417726139 -0.0173310226043199
1652454678.5738935 -5.734531086831275 91.95249602102555 -0.024717002642209163
1652454678.9725237 -5.7146434221555324 91.32558057606346 -0.03609413235774908
1652454678.9725237 -5.7146434221555324 91.32558057606346 -0.03609413235774908
1652454679.372491 -5.6924053046968695 90.72952046617839 -0.04603737348747486
1652454679.7724535 -5.677778091930364 90.13666628321823 -0.05287283273255025
1652454680.1724613 -5.674009561731346 89.52694128574389 -0.06493516122548873
1652454680.5724912 -5.682219940723108 88.94603662531361 -0.07915723371401803
1652454680.972452 -5.713903163701815 88.41306800660044 -0.08359780314389165
1652454681.3724558 -5.768565048758667 87.85456417224157 -0.08545167839145956
1652454682.1723592 -5.8878170339561535 86.68117975753376 -0.07860006897307573
1652454682.5723565 -5.9404543672556045 86.06884844915376 -0.08078650298604131
1652454682.972355 -6.00914540904477 85.44936894645993 -0.09190595971931653
1652454683.3724136 -6.084778426621291 84.8132053046241 -0.11513277404660069
1652454683.7724454 -6.157658761011632 84.16279093374004 -0.1724756274594094
1652454684.172479 -6.230804249985873 83.55415454430488 -0.21192755744720843
1652454684.5724804 -6.2915118762121125 83.01988798846057 -0.2010031978642867
1652454684.9724588 -6.350732782886553 82.4459800981553 -0.19799201583949158
1652454685.7724366 -6.509482734711128 81.21068135804761 -0.2311028697493997
1652454686.1724448 -6.586097040452557 80.63601650315672 -0.2502103921505274
1652454686.5723891 -6.648593018449247 80.0473953642217 -0.25998627721944373
1652454687.3723526 -6.732931655893822 78.91580804628546 -0.2338443843337913
1652454687.7723503 -6.779603095377929 78.33060282610708 -0.2235862951931315
1652454688.1723573 -6.846665986914537 77.75391119950172 -0.2165911903577477
1652454688.5723774 -6.919864343869435 77.15065754176688 -0.21649170955150027
1652454688.5723774 -6.919864343869435 77.15065754176688 -0.21649170955150027
1652454688.9723775 -6.998989131363828 76.55168421955133 -0.2208819318342334
1652454689.3735657 -7.072034632077852 75.98174766581758 -0.22011437856173693
1652454690.1723573 -7.231754074567313 74.86114744071044 -0.19998276078416957
1652454690.972349 -7.39478465044489 73.72136684808245 -0.17044710111071035
1652454691.3723166 -7.46784413782494 73.15581289684756 -0.1515598619966011
1652454691.7723417 -7.553841935358101 72.57050352618639 -0.1349747629875441
1652454692.1724339 -7.641258720412566 71.97890087459106 -0.12252287867289458
1652454692.5725067 -7.7287114827056556 71.38829857154187 -0.1118661210743036
1652454692.972575 -7.817471337093885 70.78626485422555 -0.10582341901691364
1652454692.972575 -7.817471337093885 70.78626485422555 -0.10582341901691364
1652454693.372755 -7.918577843238872 70.20205961162881 -0.10478279574876209
1652454693.7716854 -8.001516795743214 69.61584566740287 -0.10062865218918743
1652454694.1729114 -8.098173909115062 69.03470327512665 -0.09557845722872566
1652454694.5729156 -8.188593168827573 68.45796520388564 -0.08514934182307496
1652454694.972918 -8.288199375560701 67.86296058038168 -0.07732194414039129
1652454695.3729076 -8.390134864497234 67.27616939895016 -0.07122651819131456
1652454695.7729132 -8.499351627084913 66.68813329076153 -0.06630334930740259
1652454696.171808 -8.609657410402413 66.11414904990417 -0.05917776909667613
1652454696.5718095 -8.724001040043568 65.54862553713232 -0.04843302319028858
1652454696.9718215 -8.843190987851798 64.97150102896428 -0.03702961867502719
1652454697.3718045 -8.964447270363948 64.37698449480504 -0.03064955810362635
1652454697.7718208 -9.089983592934729 63.78249331986707 -0.028025535171319144
1652454698.1718376 -9.216175875228927 63.195992104084084 -0.02578917010774512
1652454698.1718376 -9.216175875228927 63.195992104084084 -0.02578917010774512
1652454698.572908 -9.344507039399744 62.60987284979143 -0.023354498485551073
1652454698.97278 -9.481090740179809 62.03219124271594 -0.020980846841879203
1652454700.1729255 -9.912384957256997 60.269718189349874 -0.030615067207059615
1652454700.5730622 -10.060393823683512 59.69335227106119 -0.035071735150388944
1652454700.9720273 -10.211519535055643 59.12547970224307 -0.03561717195921196
1652454701.3720295 -10.355778385531735 58.564425523430586 -0.03033816986310417
1652454701.772045 -10.504588934282154 58.01400089928637 -0.019384357882418546
1652454702.1720223 -10.65609430134505 57.447746392009904 -0.00845985541467742
1652454702.5720847 -10.82181369300001 56.8690479190031 -0.002035493823393769
1652454702.9720201 -10.986334315876498 56.31280189275837 0.007828114701041777
1652454702.9720201 -10.986334315876498 56.31280189275837 0.007828114701041777
1652454703.3722594 -11.151625756849349 55.744806503372516 0.017029912117781626
1652454703.772355 -11.319773126517362 55.168415652209994 0.023763795803592752
1652454704.172377 -11.497442139324242 54.600898627468084 0.028092337090189684
1652454704.572373 -11.667864362697408 54.02946312022014 0.032395404702324965
1652454704.9723475 -11.836206147689623 53.443362937624485 0.034316881739191146
1652454706.1724367 -12.201146930857035 51.66358826364852 0.033816312464621384
1652454706.572425 -12.247559144069186 51.06862062317967 0.037781463171644464
1652454706.972447 -12.25208572545299 50.47888535124129 0.049417826938145615
1652454707.3725212 -12.240670729641831 49.87510187654295 0.05649713394200048
1652454707.7724597 -12.231318647644095 49.28655879064905 0.06746239614255282
1652454707.7724597 -12.231318647644095 49.28655879064905 0.06746239614255282
1652454708.1723323 -12.209951795522272 48.680129192447694 0.0755773358215202
1652454708.972323 -12.151009613528476 47.48436228208075 0.08850607982881382
1652454709.37244 -12.109453936227819 46.88347900900102 0.0944784784570484
1652454709.7724912 -12.065414611696394 46.27776703615443 0.09758203714832706
1652454710.1724608 -12.008948953573132 45.68216874374369 0.10185820379105062
1652454710.572442 -11.957173507182905 45.10976415852703 0.11240407573135268
1652454710.9724448 -11.901276242619524 44.50976041341158 0.11910089372116922
1652454711.3724718 -11.839052382258384 43.841740569242816 0.08435072311522823
1652454712.172441 -11.686639686610647 42.73437465459317 0.12492155826738657
1652454712.5724332 -11.597219008808205 42.09245199806455 0.10856938495966623
1652454712.5724332 -11.597219008808205 42.09245199806455 0.10856938495966623
1652454712.9725187 -11.514551466542377 41.47431876516406 0.09770352752247737
1652454713.3725448 -11.435612568650926 40.868831637607784 0.08482788786293803
1652454713.7725227 -11.356202058222022 40.27366107662462 0.07740701861093599
1652454714.5724688 -11.175041994936604 39.120502646736156 0.08263004763617718
1652454715.3723238 -10.996034092269399 37.950259421414806 0.08663806285962371
1652454716.172357 -10.826010569923787 36.75397313511803 0.07187082958998951
1652454716.9723237 -10.634274584520666 35.602435666788466 0.08224835535705873
1652454717.3723075 -10.52885683964749 35.007207422587896 0.0805251909496497
1652454717.7723162 -10.42651635455101 34.412571089084466 0.07768391297159555
1652454718.1723292 -10.332746079678854 33.8488038062448 0.08923496003053394
1652454718.5723255 -10.23339845769029 33.263890437949904 0.09442118389299319
1652454718.9723327 -10.133486036897201 32.67850469697513 0.10225856790217525
1652454719.3724256 -10.035506119327499 32.10064811468466 0.1118291110490507
1652454719.7724488 -9.938957050583497 31.514288523428664 0.11792480916325328
1652454720.1724544 -9.839712065532968 30.92427894012158 0.1230064896655017
1652454720.5724404 -9.748761804592153 30.351638576947728 0.13529253248779244
1652454720.972451 -9.656880257682804 29.755058993977887 0.13634855068801127
1652454721.3724396 -9.564484889743436 29.162524534703973 0.1399467536586854
1652454721.7724454 -9.479531597158784 28.642424897975005 0.13903050026750058
1652454721.7724454 -9.479531597158784 28.642424897975005 0.13903050026750058
1652454722.572436 -9.322808642607326 27.65072352711292 0.13544482547905842
1652454722.9724355 -9.23345444593449 27.058582643250205 0.13269025272038845
1652454723.3725345 -9.15280191375253 26.47656760000003 0.136328133349556
1652454723.7725422 -9.072919414733821 25.891634404161948 0.13884061945082482
