1652454708.9690933 -12.035241693880817 48.51273361919867 0.04362334177116228
1652454709.369108 -12.006109440833804 47.914233640165385 0.049754588727445426
1652454709.7690897 -11.972157045678117 47.31118837255518 0.05824311174679564
1652454710.1690242 -11.923429685035615 46.71674906551626 0.06225845047497186
1652454710.5690637 -11.883953158566332 46.14406913931674 0.06409165252465249
1652454710.9690347 -11.839859797738587 45.54920972464515 0.06722247266459042
1652454710.9690347 -11.839859797738587 45.54920972464515 0.06722247266459042
1652454711.3692045 -11.788368226109132 44.883108508857035 0.08290015158766367
1652454711.769531 -11.727995563285317 44.31689416149926 0.08025279148816156
1652454712.1695216 -11.645513447741106 43.77589219660942 0.04479634737746707
1652454712.5695229 -11.555297848440503 43.13850102100116 0.08559778303129711
1652454712.9694984 -11.476030798890593 42.519342572972015 0.09097865774551961
1652454713.7695334 -11.327814152273097 41.31730014719161 0.06239895902104642
1652454714.169514 -11.237056986141623 40.74653286457911 0.048080155685615356
1652454714.5695028 -11.149426194315708 40.164776816767976 0.04404799989599434
1652454714.9707594 -11.061141478155267 39.578668991566914 0.048499045208754754
1652454715.3707867 -10.98077477726259 38.9950006699224 0.045660316017905545
1652454715.7707438 -10.89814050345593 38.39930517535076 0.0513830794502515
1652454716.1708553 -10.81380485544832 37.801458864247934 0.0493700326992052
1652454716.5698047 -10.709337275442826 37.22636901407961 0.050130631676875925
1652454716.9698758 -10.618371383227435 36.64925595522647 0.04649494173284796
1652454717.36988 -10.506390316707371 36.05516716127299 0.050246665713794325
1652454717.7698889 -10.401137481171068 35.46058671783736 0.05466357106787206
1652454718.1711214 -10.311569894867151 34.89689015484706 0.0500909449894536
1652454718.1711214 -10.311569894867151 34.89689015484706 0.0500909449894536
1652454718.5699284 -10.212229392671922 34.31153582415303 0.049726493785774095
1652454719.7698336 -9.911630691483095 32.56129210051321 0.06770927973450985
1652454720.5685248 -9.720879561102457 31.398655913817393 0.08164767046919819
1652454720.9685225 -9.626167848333719 30.80286577504904 0.08806485370864686
1652454721.3697803 -9.528838214400395 30.209827811248918 0.10087718930931808
1652454722.1684794 -9.374903552313105 29.27307981829437 0.09774180503834562
1652454722.96837 -9.18563157449816 28.104628038398516 0.10214382978431297
1652454723.7696688 -9.01644131111166 26.938299532118542 0.09094068945681544
1652454724.169608 -8.93063496729806 26.3522067322166 0.09653930347795761
1652454724.9694524 -8.775458657665826 25.166219558232445 0.10484340575886197
1652454725.3694923 -8.720538812544286 24.583381093674745 0.10718701080091869
1652454725.7682238 -8.66716440562936 24.051796337596542 0.10672419693904281
1652454726.168229 -8.576693967473652 23.561277926545944 0.11245368333763334
1652454726.5728765 -8.512576965756132 23.301747305544374 0.11733264898032483
1652454727.369097 -8.06723942081248 22.29198919826244 0.11104930727750059
1652454727.7692585 -7.83025667655954 21.92002499238818 0.12083900568541256
1652454728.168023 -7.53156815921153 21.594764799480966 0.12338107805854678
1652454728.5693083 -7.066704534364032 21.330893187813913 0.11812224703619226
1652454728.9692588 -6.519476080360299 21.046484462323505 0.11801040777980243
1652454729.368004 -5.9667689091961975 20.782877907339387 0.10733857648760436
1652454729.7680008 -5.418098084440187 20.5564356467649 0.0962687461129883
1652454729.7680008 -5.418098084440187 20.5564356467649 0.0962687461129883
1652454730.168049 -4.853453899251466 20.35013933938444 0.08997891193305962
1652454730.5680263 -4.24997516727854 20.15531115326377 0.09753468000386661
1652454730.969267 -3.6730426915608128 19.99267092285655 0.08807745405044964
1652454731.369296 -3.0768735969119003 19.82503722489083 0.07929277092835757
1652454731.7692652 -2.4971521219147768 19.6956123841274 0.06732612086233292
1652454732.1680255 -1.895421065621555 19.53602823197392 0.05803649907182662
1652454732.5682323 -1.4385948227180805 19.416758657251435 0.058401924267129535
1652454732.9682207 -1.1010543650784168 19.34023445688632 0.01973797034998198
1652454733.3680832 -0.6956471573800869 19.317815832977995 0.003570350927656618
1652454733.7679589 -0.18484671670676178 19.360682159698218 0.02669139575309737
1652454734.1690927 0.39141435388053125 19.4605695196069 0.04552898311825182
1652454734.5690174 0.8996189396826981 19.692483612393872 0.04211900707819871
1652454734.5690174 0.8996189396826981 19.692483612393872 0.04211900707819871
1652454734.9690502 1.3513025530374883 20.07873945644905 0.04068311933532265
1652454735.3690536 1.7936227917222425 20.4766889311857 0.03896491038314487
1652454735.7690423 2.2296057497020136 20.90383537675456 0.04257525997194994
1652454736.1690726 2.604343171124352 21.380501436297706 0.04758969124505291
1652454736.5690017 2.949178010555654 21.89580373466056 0.046789688263200846
1652454737.3690352 3.545140673820363 22.931963772652846 0.03470086751514445
1652454737.769035 3.8104363286354506 23.45823761250593 0.031281916105082797
1652454738.1690304 4.0756494770568175 23.97904944597842 0.0370078266859713
1652454738.5690331 4.390500525355314 24.502771436145366 0.037417517899580255
1652454738.9690251 4.705014960055081 25.02586261015113 0.021378406793382987
1652454739.3690474 5.021826484130269 25.513564662862784 0.011484628328220559
1652454739.3690474 5.021826484130269 25.513564662862784 0.011484628328220559
1652454739.7691858 5.355750236849396 26.00670322413398 0.004431806916022962
1652454740.168021 5.680697029749481 26.50180654689995 0.0020483996742248767
1652454740.568004 5.9978517995451135 27.00176065662815 0.002626458326311587
1652454740.9680166 6.314545420889573 27.502550899400823 0.006761750128188304
1652454741.368168 6.626431433246758 27.99682567128685 0.013677486232386071
1652454741.7682543 6.939494551883072 28.504386596435303 0.02056984006288759
1652454742.1682498 7.255369382446382 29.04110056997969 0.03618896005178551
1652454742.5683696 7.5916975122073005 29.582235616878357 0.04052755699461985
1652454742.9684088 7.912569572909987 30.11171956599262 0.021830124490520852
1652454743.7697685 8.514909244206404 31.134783347167645 -0.017179719565834084
1652454744.168522 8.823023679826917 31.64616100303858 -0.02553618350955117
1652454744.5685625 9.143474537786076 32.13967943791219 -0.022124105382690218
1652454745.36849 9.599742983662388 33.112622118709105 -0.04026289016420348
1652454745.7684696 9.735906310837809 33.59669075001628 -0.04910149266823388
1652454746.168463 9.816482201022726 34.10515498732063 -0.05997126251579865
1652454746.5684583 9.827280490329954 34.649481249324495 -0.054474381096188795
1652454746.5684583 9.827280490329954 34.649481249324495 -0.054474381096188795
1652454746.9685519 9.780042254558648 35.17250675665652 -0.04350090973169801
1652454747.368513 9.657742891445277 35.68348783730977 -0.04988880157982584
1652454747.7685106 9.456828743789849 36.17497582411413 -0.043952732223329516
1652454748.1686113 9.171130679958939 36.60383802267103 -0.044982913470711594
1652454748.568639 8.733971806428535 36.93260160485096 -0.04366053728490277
1652454748.9686558 8.176639279403577 37.21390551544131 -0.032806735965928535
1652454749.3686614 7.623825966232978 37.46759384023156 -0.03692760421507235
1652454750.1688457 6.476067124812197 37.79602098480021 -0.05430546090924104
1652454750.5688293 5.896166815424351 37.89947230593447 -0.06272238702875277
1652454750.9688284 5.276686705872624 37.99357993067183 -0.04346206985497736
1652454751.3688424 4.637004824983006 38.058424057914735 -0.03581769289652892
1652454751.7675116 4.028656117733327 38.11482952953562 -0.051783753395229115
1652454751.7675116 4.028656117733327 38.11482952953562 -0.051783753395229115
1652454752.1688638 3.4583043225945502 38.182230733427666 -0.07394884436177529
1652454752.5689783 2.8763941912425715 38.26326425030831 -0.07812992808443409
1652454752.9690583 2.2822637104866743 38.33646612604495 -0.06698021878500976
1652454753.3690407 1.7107536134885102 38.396229290049114 -0.06328236050528563
1652454753.7690108 1.1283518166816648 38.466540520301 -0.0536370616832228
1652454754.169021 0.5266146052426031 38.52113824377544 -0.03220384191449693
1652454754.569118 -0.07473592377338178 38.57377261149818 -0.01800837317886106
1652454754.9690926 -0.6668856620150869 38.6106525177884 -0.007006798360673916
1652454755.369064 -1.2271713486083158 38.65588862907468 -0.009142824638591174
1652454756.56906 -3.0133732000413076 38.76092052780531 0.06572108999061205
1652454756.56906 -3.0133732000413076 38.76092052780531 0.06572108999061205
1652454756.9690638 -3.645141125708946 38.78692231924679 0.07791344779762738
1652454757.369048 -4.242593323546018 38.81343820474382 0.06749427124652235
1652454757.7690537 -4.83547974290191 38.83706965479189 0.058323608982179975
1652454758.5690198 -6.074459674270379 38.862528272817414 0.06665886546361083
1652454758.9690912 -6.68771346779733 38.86740965058499 0.060463762381887776
1652454759.3690367 -7.2762853344587555 38.85632056437407 0.04286293889277637
1652454760.1690373 -8.225863200191133 38.812939655933775 0.041773074417606304
1652454760.569034 -8.601919495017114 38.83442264017492 0.04615090106952591
1652454760.9702365 -8.973514156314971 38.88450589196397 0.04581196468427262
1652454761.3702903 -9.331471130458944 39.00724484633529 0.05200248122422024
1652454761.3702903 -9.331471130458944 39.00724484633529 0.05200248122422024
1652454761.7703202 -9.677693746358628 39.17289480068676 0.04069934540819087
1652454762.1715114 -9.949964430380337 39.41476157754744 0.04365266869145429
1652454762.5690172 -10.152897800734223 39.76396401698404 0.053209904993182955
1652454762.9690523 -10.191347215113629 40.28947433437096 0.05511396886260489
1652454763.3702614 -10.20756804203792 40.86967653608565 0.048924493180429685
1652454763.7690325 -10.173868242924025 41.45801500085995 0.05780641053661584
1652454764.570258 -10.005999368809611 42.69165197622162 0.08222444753260216
1652454764.9702303 -9.855342908746877 43.261726035800436 0.07881688641063356
1652454765.3690286 -9.725318833191558 43.81418800031986 0.04877835601165459
1652454765.7702343 -9.518391615268389 44.44654803501573 0.07180301528667216
1652454766.1690295 -9.307649942143975 45.00309325321702 0.05157184280741145
1652454766.1690295 -9.307649942143975 45.00309325321702 0.05157184280741145
1652454766.5691469 -9.070665813145755 45.533459226543386 0.025366042754332407
1652454766.9691234 -8.830286571328884 46.08203084583519 0.017018901646414897
1652454767.3690972 -8.59094243270832 46.64925085920861 0.020896687149689674
1652454768.1691208 -8.189790060944755 47.7685243811954 0.0030508126965758664
1652454768.5692468 -8.001017638462894 48.338155141936625 0.00040369613505203406
1652454768.9692407 -7.7881279600076425 48.91638117956902 -0.004279219617926877
1652454769.3692446 -7.617023250246252 49.47973578688996 -0.01353922688061987
1652454770.169278 -7.332752865794628 50.63518788975264 -0.026939131359235202
1652454770.5692127 -7.184170250465495 51.23046680293494 -0.03081471634867794
1652454770.9691079 -7.043169488429225 51.80756063741915 -0.03780593142857369
1652454771.7701511 -6.768787101645181 52.95799116670236 -0.056947702880996764
1652454772.1689048 -6.633152660426699 53.54102455107341 -0.06483231868149442
1652454772.5690303 -6.506530664891049 54.148229508268784 -0.06354818605044404
1652454772.9702628 -6.372003009132239 54.74509753535888 -0.06772747407759411
1652454773.3690326 -6.262254407977611 55.3194835008881 -0.08273601426082522
1652454773.769061 -6.151906183129935 55.91799081679213 -0.09362106876441417
1652454774.1690307 -6.047451653724689 56.5028003447826 -0.10103022071485035
1652454774.5702658 -5.955513456325875 57.08872429952835 -0.11300242113661274
1652454774.9690151 -5.862489925830015 57.67883668247762 -0.11740380101280729
1652454775.7691796 -5.703099478530689 58.84220419829201 -0.13050739340292766
1652454776.1699939 -5.6287472974850346 59.44139178991271 -0.13009780300027318
1652454776.970015 -5.496012380008214 60.62153679753788 -0.13328648161912066
1652454777.7688153 -5.384718758481888 61.82258229634678 -0.13577686925080257
1652454778.1688976 -5.346730067387572 62.40118856994019 -0.14055906960107334
1652454778.570104 -5.315840398986282 62.98816531611794 -0.14547893671498513
1652454778.9688935 -5.282439219018158 63.59356626207352 -0.14408688277301474
1652454779.3689098 -5.262502963772654 64.18909814988432 -0.14305046027032853
1652454779.769037 -5.254516905005065 64.79199210826131 -0.14348663533301947
1652454780.1691072 -5.257329778269366 65.41347252692957 -0.14288422400506312
1652454780.1691072 -5.257329778269366 65.41347252692957 -0.14288422400506312
1652454780.5693483 -5.258862658272225 66.00934391520298 -0.14667989256239894
1652454780.9695055 -5.278126107685161 66.59496655618746 -0.15745321512235994
1652454781.3694825 -5.290941551816555 67.19147082927661 -0.16454577495652128
1652454782.1682234 -5.338080662751665 68.39010037206424 -0.17249658150614727
1652454782.9696534 -5.396491737631273 69.57849255437029 -0.18365049533743222
1652454783.3697758 -5.434000203146745 70.17092372034641 -0.19177774512680773
1652454783.769898 -5.475832668243541 70.79109727851767 -0.19166962122084075
1652454784.169829 -5.518901570578365 71.37819581420776 -0.195622968859269
1652454784.568462 -5.570200322100902 71.97921640133265 -0.20481738154052903
1652454785.3696587 -5.672159918951252 73.20228412307807 -0.2169251462405603
1652454785.7683568 -5.7226118000243815 73.80136999135794 -0.2319291583621486
1652454786.1683376 -5.767928233892768 74.40408007627114 -0.24745116540108436
1652454786.5708559 -5.817484612777513 75.0016939767797 -0.26156434051733507
1652454786.9708471 -5.854898502487366 75.56399981031961 -0.27945123182422377
1652454787.7687418 -5.859282026846671 76.72891710047826 -0.29604848159471553
1652454788.1688507 -5.822153405846926 77.32219860613036 -0.2929733922008248
1652454788.5689204 -5.776401352788021 77.91873785643932 -0.2932578576161464
1652454788.9713655 -5.730883631438907 78.49422977107362 -0.2944775441918358
1652454789.7689183 -5.527218973943434 79.62608723075343 -0.29936145110203416
1652454790.1690323 -5.3700994562257165 80.21376069563546 -0.2920455957014291
1652454790.5690036 -5.1896792492307995 80.77923349715323 -0.28244764747038614
1652454790.9690065 -5.007195843861666 81.33218064783186 -0.2843890796190019
1652454791.3690066 -4.801987381137565 81.8884254993327 -0.2830547177504525
1652454791.7690141 -4.57972026775704 82.42294160934254 -0.28446437086636295
1652454792.1714764 -4.3334921674524765 82.91109307007169 -0.28578609374066455
1652454792.1714764 -4.3334921674524765 82.91109307007169 -0.28578609374066455
1652454792.5702672 -4.04541501270495 83.40130624323714 -0.2886179450135593
1652454792.9702406 -3.715641423116999 83.88139144519427 -0.2745240368946403
1652454793.3714898 -3.3847731975214046 84.32713909062731 -0.25756358693262554
1652454793.7702894 -3.017516627067508 84.76685625629842 -0.23582140724996575
1652454794.171488 -2.608252769600675 85.17333733344357 -0.21929065142255943
1652454794.9706674 -1.7012432569780245 85.90765045821968 -0.201594904680451
1652454795.370643 -1.213130778438817 86.20124681673857 -0.20102622194187003
1652454795.7693982 -0.6927588999014347 86.47202226368047 -0.19562123517887559
1652454796.5694902 0.3977800429360485 86.84532891729452 -0.1872403755875608
1652454796.9694896 0.9789381958167169 86.95718736198846 -0.18668360638937193
1652454797.3696377 1.5462897383783698 87.020338214296 -0.19121541161413463
1652454797.769611 2.128576446267708 87.02867983220499 -0.19866173065093007
1652454798.1696706 2.7180866238336776 86.96407770192039 -0.2039296660215274
1652454798.570882 3.272951904344069 86.8475565500667 -0.2165702425234124
1652454798.9697654 3.80904697718384 86.67696383604013 -0.23234941358158878
1652454798.9697654 3.80904697718384 86.67696383604013 -0.23234941358158878
1652454799.3711755 4.314734896504575 86.47142925684393 -0.24253880654570698
1652454799.7704852 4.798089832806831 86.18143625060533 -0.2501176287568935
1652454800.1692266 5.2843013872844224 85.81121877362489 -0.2481558628719751
1652454800.5704746 5.746327936910575 85.42002476014673 -0.2499459656870302
1652454800.970536 6.158224959884109 85.00374401448656 -0.2598501311313532
1652454801.370536 6.5594269886184335 84.55060997729065 -0.26783245744359474
1652454801.7705147 6.9170813605314905 84.1400917140041 -0.27759577959482057
1652454802.1704938 7.2651997682005245 83.69088062857858 -0.2848948648584865
1652454802.569244 7.615844067177392 83.20166892747056 -0.27404033217211116
1652454802.9704459 7.939626183036388 82.69698707658068 -0.2641260197574352
1652454803.3704596 8.269574009111288 82.16101743369836 -0.25706850604002685
1652454804.1704712 8.831556820931631 81.07406497636418 -0.27085525087620466
1652454804.1704712 8.831556820931631 81.07406497636418 -0.27085525087620466
1652454804.5705318 9.047944111541113 80.53126016551467 -0.2997426493397885
1652454804.969217 9.21755092753655 80.00708907618863 -0.32366417356995314
1652454805.367712 9.338343856632576 79.43864946258412 -0.33249731581023106
1652454806.1702483 9.41553585846107 78.2683996504372 -0.34839951582183337
1652454806.570242 9.393062857663793 77.71908729746718 -0.335531094910479
1652454806.9704828 9.32951346574471 77.1559798201723 -0.32604176056268774
1652454807.3717415 9.222825357989976 76.56760268768807 -0.29527695890241507
1652454807.7717247 9.066703848671793 75.98721235510837 -0.28314693174739763
1652454808.1717627 8.857573477053563 75.41907432425025 -0.2834568801433306
1652454808.5717697 8.63191220203705 74.85801577977341 -0.28576997518256153
1652454808.970651 8.405871353517718 74.32841900759935 -0.2896074254275476
1652454808.970651 8.405871353517718 74.32841900759935 -0.2896074254275476
1652454809.370488 8.15104803787873 73.81639572473635 -0.298185575523853
1652454809.7704926 7.868414946079014 73.29644806224408 -0.2798693196827258
1652454810.1718023 7.57273996626413 72.79438391971526 -0.2685330493576202
1652454810.5718057 7.257782126578121 72.33163676239253 -0.25845963321787635
1652454810.9704971 6.926137561293594 71.86613444706916 -0.24237913868265465
1652454811.3705165 6.57391809874369 71.36029798572328 -0.20899767123644147
1652454836.5687675 -11.812953706682231 39.66615144735054 0.0757424654113395
1652454836.9674768 -11.708214040797662 39.08270947495937 0.06257457738886318
1652454837.3687985 -11.573960701141386 38.48077904671559 0.06452313194880827
1652454837.3687985 -11.573960701141386 38.48077904671559 0.06452313194880827
1652454837.7689946 -11.431616571075173 37.89337910450146 0.06512830639189571
1652454838.1678061 -11.27383492251417 37.30552185921742 0.059294676036624305
1652454838.9690292 -10.99142433914859 36.209506072600455 0.03864522377151863
1652454839.3690438 -10.900934042921566 35.61008039833933 0.04340873369968917
1652454839.7690349 -10.797286850652819 35.035118589946116 0.043577609509734605
1652454840.1677728 -10.685369659741093 34.48192415597048 0.03811283884133693
1652454840.569047 -10.579127578262817 33.884847106470374 0.04914122669780269
1652454842.169031 -10.209961501627825 31.588951716701473 0.08046389768272272
1652454842.169031 -10.209961501627825 31.588951716701473 0.08046389768272272
1652454843.3677213 -9.858913990425298 30.431108717786717 0.09290316617928604
1652454843.768978 -9.572593329449338 30.058803770055977 0.09274745805088092
1652454844.16776 -9.108598547034868 29.668564250450046 0.10107337145473949
1652454844.567721 -8.610844535685462 29.329508942705676 0.08889388391826014
1652454844.9677277 -8.095248950845273 29.03657983320709 0.06564646276523373
1652454845.3677394 -7.560248548309874 28.758135124085488 0.05794468746808351
1652454845.7677302 -7.012228839084891 28.530227679270233 0.054826555859007975
1652454846.1677072 -6.439209889378375 28.318832109615737 0.057185715492903355
1652454846.567765 -5.857743966233349 28.130861473098687 0.060727953525681166
1652454846.967761 -5.278195586686424 27.976907871820643 0.05541097336607792
1652454847.3677747 -4.688395041938627 27.849106964079507 0.0526513264529031
1652454847.767804 -4.074277141574386 27.752421453826084 0.05138131571276339
1652454848.1678777 -3.4296830567459953 27.68795357403934 0.0498803181794899
1652454848.9678867 -2.264084418625716 27.645235502470754 0.004691158838963816
1652454849.3679125 -1.72326163175536 27.64975286351521 -0.0139225448121994
1652454849.3679125 -1.72326163175536 27.64975286351521 -0.0139225448121994
1652454850.1678736 -0.5454524840395383 27.77784911325889 0.007316860257566671
1652454850.5678504 0.025075208184526687 27.890853951456645 0.0011716940027198808
1652454850.9678574 0.569205305670291 28.018145896220773 -0.00986240952016243
1652454851.367958 1.041086834930475 28.08602220381966 -0.003152224650389557
1652454852.967836 2.107869135111887 29.186896892976605 -0.023767073685877993
1652454852.967836 2.107869135111887 29.186896892976605 -0.023767073685877993
1652454853.3677197 2.166399756274828 29.77521181985662 -0.039759802434881086
1652454853.769027 2.195052766699895 30.37607130675307 -0.050315548747073946
1652454854.169061 2.202121429414028 30.96535918334061 -0.04528054094069178
1652454854.169061 2.202121429414028 30.96535918334061 -0.04528054094069178
1652454854.570324 2.187500110846269 31.542344095672558 -0.054495644784553154
1652454854.9690475 2.114727796515446 32.16039196812354 -0.037563051022933225
1652454855.3702478 2.018686927732997 32.753633337612364 -0.029052532249113028
1652454855.7677574 1.9097381662333248 33.34127989802457 -0.0398658607196094
1652454856.167767 1.7834316620397566 33.92026975819377 -0.03974238841428973
1652454856.5715523 1.6246238278409244 34.51648856979186 -0.03300255485079445
1652454856.9714859 1.4504490243825074 35.08766444229879 -0.028416076439538362
1652454858.1699202 0.9390968322402315 36.81989355990955 -0.028831472486031684
1652454858.5674448 0.7581280666861687 37.40209529262995 -0.028498541893992257
1652454858.5674448 0.7581280666861687 37.40209529262995 -0.028498541893992257
1652454858.9689026 0.5612512158197553 37.97263360675166 -0.026881829515663203
1652454859.3677495 0.3591339461634817 38.52345230825608 -0.03324835309983787
1652454859.7689855 0.1535123344038425 39.061218886256775 -0.03514837550604799
1652454860.1689842 -0.06395699596309612 39.61197047018819 -0.0227611637503225
1652454860.567709 -0.28504181938017226 40.1668697164374 -0.010168969375966175
1652454860.968977 -0.5059399229721677 40.74254181940988 0.000953681124234329
1652454861.3689535 -0.7401258327506994 41.34090813240966 0.010836987486779637
1652454861.7689538 -0.9566547119958138 41.883320751176036 -0.012812392340305512
1652454862.1689317 -1.1824872607383696 42.427662819810905 -0.02990592300115752
1652454862.5675578 -1.4850623203691207 42.99570834984183 -0.01097835539462505
1652454862.9687173 -1.7590531975305055 43.47692784554246 -0.02800079352415824
1652454864.1674135 -2.546299968905778 45.0587621038754 0.016844471549319062
1652454864.1674135 -2.546299968905778 45.0587621038754 0.016844471549319062
1652454864.5687857 -2.803657149516315 45.60599526454339 0.005086620246739115
1652454864.9687726 -3.06570851573219 46.1558956640749 0.008790064984588342
1652454865.3674786 -3.296311406549382 46.712164649713486 0.0013159914991985322
1652454865.7675157 -3.5223859788491616 47.26286721545177 -0.006002520186729199
1652454866.1688108 -3.7380126513549428 47.80819399620071 -0.01094895333222945
1652454866.5687275 -3.949909828645751 48.36333967246179 -0.013827715810002583
1652454866.9674861 -4.161872865751054 48.92670605649782 -0.014635999052204418
1652454867.3687217 -4.375921899563451 49.4975496164065 -0.012368483948954068
1652454867.767426 -4.580656275176363 50.06797521621627 -0.0147211614095063
1652454868.1687546 -4.781250828433674 50.6441183108587 -0.020081902306181343
1652454868.567484 -4.9718081278952795 51.20969631838749 -0.02948019912611277
1652454868.567484 -4.9718081278952795 51.20969631838749 -0.02948019912611277
1652454868.9687626 -5.15643866062663 51.78442732427511 -0.0419412320505933
1652454869.3687522 -5.338879067394657 52.374911098029514 -0.051837546620148334
1652454869.768764 -5.505264466011955 52.91776783276093 -0.06360651284128199
1652454870.1674519 -5.65942784701852 53.47111478838431 -0.08505467498931274
1652454870.5687196 -5.831440417495667 54.05415929481984 -0.07556787325872694
1652454870.9687319 -6.003300794103826 54.58754266090684 -0.07848283108135712
1652454871.3674574 -6.1400434663986445 54.99377630630978 -0.0845896218735
1652454871.768727 -6.213928673310189 55.38714919403108 -0.09334129082379161
1652454872.5687096 -6.22303037450315 56.26069187739945 -0.09600255592723517
1652454872.9674954 -6.13969896418169 56.72326177117355 -0.10670391472862273
1652454873.3687527 -5.996096449609254 57.16631563231249 -0.11304097049830841
1652454873.3687527 -5.996096449609254 57.16631563231249 -0.11304097049830841
1652454873.7674646 -5.779862184480294 57.59316733866925 -0.12280865949331737
1652454874.1687608 -5.505198293060751 58.02327409948095 -0.12901476090555464
1652454874.567482 -5.1640941875064215 58.50866667789056 -0.13722031970092186
1652454874.9687548 -4.7932280629787805 58.98561236265289 -0.14004607497428734
1652454875.7687428 -4.045663847331625 59.85077640482321 -0.15493068519672454
1652454876.1688502 -3.650520379606185 60.26895961013424 -0.16064569085426839
1652454876.5676293 -3.21500953783249 60.66707190386607 -0.16723618694434056
1652454876.9688501 -2.747942654122177 61.053802663269025 -0.17355840702023706
1652454877.3675814 -2.2602397462383195 61.43622570981384 -0.180407973796541
1652454877.7688422 -1.7866528078331463 61.7796337865246 -0.19551835416666286
1652454878.1688306 -1.3120230506665038 62.10175271096392 -0.21530224580287627
1652454878.1688306 -1.3120230506665038 62.10175271096392 -0.21530224580287627
1652454878.5688634 -0.8372475777556367 62.41702283619988 -0.22685557923637828
1652454878.9677074 -0.3391397337505708 62.74082910349851 -0.21751868035663285
1652454879.368963 0.16663036718161095 63.05490729504487 -0.21533687351281383
1652454879.7677197 0.6946036774654942 63.363390762653694 -0.21514827479077914
1652454880.168937 1.2317488880363427 63.728922966723395 -0.2092263054661424
1652454880.96881 2.1485992753316694 64.40796550016204 -0.26331666867049636
1652454881.767478 2.9682251501998493 65.0468802906662 -0.236507750225308
1652454882.168785 3.4431852150677287 65.4133119692316 -0.1811928559460096
1652454882.568726 3.9271461272066404 65.7831124246326 -0.14819559719027603
1652454882.967435 4.39567164532977 66.13948358111853 -0.13982676920037107
1652454882.967435 4.39567164532977 66.13948358111853 -0.13982676920037107
1652454883.3675025 4.871211780606487 66.50807082624283 -0.13487534274418844
1652454883.7692566 5.346389449772438 66.88553182013457 -0.1352128816514817
1652454884.1679583 5.818546591867793 67.28195447941542 -0.13153900002471203
1652454884.5692225 6.282172451947474 67.66368856305601 -0.13629706677552145
1652454884.9692066 6.7334288630838515 68.0607162583511 -0.1366069343962693
1652454885.3679318 7.1608118885379 68.46607013816777 -0.13726219073471208
1652454885.7678282 7.565175186627648 68.89261488862743 -0.12967424637961722
1652454886.1689365 7.937732349141385 69.29359808664957 -0.13900000984689198
1652454886.9687288 8.579613687137936 70.17837640944198 -0.15270200768344822
1652454887.768854 9.05696560438016 71.08687085616793 -0.17713359199882833
1652454887.768854 9.05696560438016 71.08687085616793 -0.17713359199882833
1652454888.1702623 9.237338485789557 71.58249856250481 -0.18863267124942712
1652454888.5697558 9.379694823216923 72.06654950775786 -0.20101228547236477
1652454888.9685462 9.4761129538456 72.53725240103186 -0.22266665911634637
1652454889.3685663 9.494965395362478 73.00437282383324 -0.24221471843476455
1652454889.7675107 9.41547566730766 73.5080489868308 -0.24997175818498502
1652454890.1699693 9.284755389838452 74.00755807280233 -0.25285511581968606
1652454890.569974 9.067996053056518 74.47234980847747 -0.266645386872749
1652454890.9700708 8.777029845014845 74.87114666237025 -0.28552409246456345
1652454891.3700812 8.415628988210955 75.20862707631602 -0.30041605613774874
1652454891.7675552 8.010184689320113 75.50694617204445 -0.31000868834867995
1652454892.1687236 7.54118027734166 75.71789882489809 -0.32834389039093215
1652454892.5687225 7.041910068541256 75.843615251675 -0.3496583672953882
1652454892.9687424 6.528915804463509 75.85678347523739 -0.36725813102831933
1652454894.9695985 4.685759398477714 74.23795445365035 -0.3881451190738978
1652454895.7696059 4.27474075201286 73.16740686892584 -0.37347989416216215
1652454896.1697335 4.13769768385675 72.60934124833099 -0.3462510787523567
1652454896.9709382 3.845675772274049 71.51992572486685 -0.291924083486203
1652454897.3709347 3.677101062611129 70.97423202859656 -0.26814992877951693
1652454897.7681768 3.4803502828931343 70.42017678550772 -0.2549682564556339
1652454898.1682088 3.281034246449977 69.8618849860273 -0.24300124075052332
1652454898.5682206 3.0870351739879354 69.31921107484698 -0.24490296281925472
1652454898.9681787 2.879848739323336 68.76596569765215 -0.25370366454196414
1652454899.3682024 2.625729584924656 68.19929003194838 -0.2595901792520882
1652454899.769555 2.354767737376676 67.65541463752115 -0.27155681064773973
1652454900.5707045 1.8816732038190267 66.6278370989378 -0.28893158707810385
1652454900.9707174 1.6937924365348138 66.12221258219131 -0.27634427061764066
1652454902.5718184 0.8695871086458169 64.67576172989784 -0.2081291282967121
1652454902.9718466 0.5865399555423423 64.37377511524288 -0.21415330316832998
1652454903.370608 0.21069865517523567 64.15523881668044 -0.22668659799390478
1652454903.7718153 -0.27195935882039635 63.94262255213516 -0.22084079858555766
1652454904.1704931 -0.7793351184330746 63.80299471199311 -0.22100106250262402
1652454904.9692004 -1.960194190927023 63.686538735943245 -0.1897928406341341
1652454905.3692598 -2.5467057291326434 63.65856766649964 -0.18383880307918798
1652454905.7692058 -3.1450116853175487 63.64932950590175 -0.17852459055897513
1652454906.1692388 -3.7133210980735143 63.62604524101128 -0.16466426158057074
1652454906.5692222 -4.113522942672237 63.60843563320559 -0.15189984885217228
1652454906.970484 -4.113509386827911 63.603011910663795 -0.15485592484092398
1652454906.970484 -4.113509386827911 63.603011910663795 -0.15485592484092398
1652454907.3692365 -4.12098852958394 63.60694898292946 -0.1590470029682649
1652454907.7704806 -4.122789803251102 63.60748371136866 -0.15758105401057365
1652454908.1692195 -4.12527888406543 63.606773482166496 -0.15699382557646085
1652454908.5705278 -4.125458199769934 63.60682732632519 -0.1571970244526611
1652454908.9705052 -4.1255782461890504 63.607204003677325 -0.15724355717076183
1652454909.3692324 -4.125264822518094 63.60623014234572 -0.15745867737784386
1652454910.1693184 -4.125346964607065 63.60646928122729 -0.15730244539040794
1652454910.5693007 -4.125311638253745 63.60639091706655 -0.1572030672674506
1652454910.970432 -4.125438998864183 63.60596532322832 -0.15748686325199474
1652454911.3703535 -4.12531079009689 63.606116617454504 -0.15776248933245562
1652454911.7690923 -4.1253889914582835 63.60632386293986 -0.15786908688980844
1652454911.7690923 -4.1253889914582835 63.60632386293986 -0.15786908688980844
1652454912.1691022 -4.125498101423428 63.606519188535486 -0.15812325247908077
1652454912.5691082 -4.125096428790851 63.60687809631939 -0.158338016343548
1652454912.9690967 -4.1251746766116995 63.60660505898841 -0.1584586632672586
1652454913.3703706 -4.125023935276708 63.60705210115716 -0.15806480864690653
1652454913.7691023 -4.124934895279779 63.60638629917173 -0.15778213772798894
1652454914.1690824 -4.124948452777932 63.60594556176717 -0.15781208640368038
1652454914.5691996 -4.124953854614105 63.60643535224558 -0.15784489936958662
1652454914.9691885 -4.124978590621449 63.606064739547094 -0.15782338920454048
1652454915.3691936 -4.124699404568624 63.60649337019616 -0.15765812959929182
1652454915.7691622 -4.124773814598409 63.60607233529116 -0.15751979121177545
1652454916.1692169 -4.124754277675322 63.60640267548215 -0.1575576335231868
1652454916.5692341 -4.125136402885609 63.606253027205824 -0.15751809674652134
1652454916.5692341 -4.125136402885609 63.606253027205824 -0.15751809674652134
1652454916.9692373 -4.125159522753545 63.60642262187032 -0.15750066380957506
1652454917.3692336 -4.125184171728716 63.60624916717502 -0.15786536867916579
1652454917.769208 -4.1250677143552466 63.606292077797775 -0.15788126984427375
1652454918.1692646 -4.125085625352337 63.60658195427136 -0.15785018781337412
1652454918.569228 -4.124935660213204 63.606536372499015 -0.15777703191367126
1652454918.9692452 -4.124752405306477 63.60657125276801 -0.15776062718581801
1652454919.7682073 -4.125195885663594 63.60650082533908 -0.15761771795327179
1652454920.168228 -4.124932849919048 63.60642806838001 -0.15755681567416813
1652454920.568211 -4.124866779012198 63.60660858610571 -0.1577234954742776
1652454920.968224 -4.1250484381846775 63.606753032355584 -0.15784315464115944
1652454921.3682246 -4.124854589127452 63.606579952604164 -0.1575829037033093
1652454921.7682147 -4.124866550274003 63.606800942763925 -0.15742132347439097
1652454922.1682768 -4.125082017650588 63.60672413247094 -0.157580910897069
1652454922.5681999 -4.124886513446377 63.60676796707931 -0.15774549796888
1652454922.968204 -4.1249798123734145 63.60679489256448 -0.15783410073045634
1652454923.3694525 -4.124837333656725 63.60695790853251 -0.15793096973855647
1652454923.3694525 -4.124837333656725 63.60695790853251 -0.15793096973855647
1652454923.768385 -4.125027870410523 63.6068425556076 -0.1579810817405155
1652454924.1698303 -4.124885192459754 63.606676599054815 -0.1579267740981038
1652454924.5698166 -4.125151620754657 63.60684026197073 -0.15786046768774736
1652454924.9698184 -4.124633596089264 63.60648302894327 -0.15792838906451862
1652454925.3698313 -4.124915590028788 63.60680580461644 -0.15793399374503986
1652454925.7699838 -4.125270200029441 63.6065579844811 -0.15774189861796878
1652454926.1687424 -4.125327897886173 63.606897764340104 -0.15758954154997096
1652454926.5699606 -4.1253536440097704 63.60680721899709 -0.15756910633337312
1652454926.968767 -4.12512750940931 63.60643166390722 -0.1577378014497493
1652454927.3712096 -4.125262392508564 63.60657786298189 -0.1577857191223857
1652454927.7699182 -4.125209362309906 63.60653889435201 -0.1578290876924438
1652454928.1697958 -4.124948061537882 63.60693470503668 -0.157974485383311
1652454928.569682 -4.125184895751222 63.60651798203488 -0.1580327271356587
1652454928.569682 -4.125184895751222 63.60651798203488 -0.1580327271356587
1652454928.969593 -4.125153423650325 63.60682942658663 -0.15796436702372552
1652454929.3709557 -4.125174300842129 63.605988455288 -0.15798089545340205
1652454929.769768 -4.124836897327313 63.60617765704551 -0.15792819737234448
1652454930.1685457 -4.124658322995007 63.60623255559756 -0.1578942681775466
1652454930.569723 -4.124847332710587 63.60617907558091 -0.15770465328896832
1652454930.968494 -4.125145245537173 63.606232917644775 -0.15750130974372906
1652454931.3697174 -4.125090065527928 63.60707520105426 -0.15742862933782897
1652454931.7697694 -4.1251292882333885 63.60710309546805 -0.1575744201794823
1652454932.9686477 -4.125320492325063 63.606811920709454 -0.1583843457770372
1652454933.7686327 -4.12522004455472 63.60566552978433 -0.15819578068810325
1652454934.168613 -4.125278492257301 63.60591356590269 -0.1582673307961246
1652454934.5686395 -4.125275089693169 63.60590256588422 -0.15841073866428806
1652454935.3687143 -4.125302676336041 63.605802874284905 -0.15827065767571313
1652454935.768727 -4.125295904621247 63.60610388068252 -0.15817519008024394
1652454936.1687472 -4.125397232355578 63.60632023076776 -0.1583213740889784
1652454936.9698 -4.125372306972363 63.606322134232826 -0.1581550161381577
1652454937.3697555 -4.125410795457778 63.6063621318999 -0.15802534970632437
1652454938.1697104 -4.125386936838215 63.60588294834626 -0.15797597569275323
1652454938.5697372 -4.125299794040508 63.60625406962831 -0.1581440916060124
1652454938.9686856 -4.125266533019502 63.60581329462161 -0.1583393565670359
1652454939.7687373 -4.124793895081165 63.60608328666706 -0.1586490962920385
1652454940.1699498 -4.124658848384836 63.605408533603544 -0.15838506411785835
1652454940.5699725 -4.12475531780602 63.60567897189741 -0.15800968068693777
1652454941.7699463 -4.1246993491923405 63.6060888413238 -0.15823840250084809
1652454942.1699574 -4.124460889681913 63.60608050505624 -0.15883410230089884
1652454942.9699504 -4.1247354208492375 63.60607523044192 -0.1585918365993313
1652454943.3699563 -4.124935059480109 63.60643229464041 -0.15831382382393117
1652454943.7687526 -4.124959769617732 63.60650272963021 -0.15817502666549227
1652454944.5687103 -4.12525626823729 63.606943333140734 -0.15842380101628128
1652454944.968749 -4.125074808502891 63.60696707948616 -0.15855080648742853
1652454945.3687959 -4.124953629608026 63.606907775741035 -0.15887059887007693
1652454946.1699455 -4.124641238546349 63.606938326048045 -0.15854635599803896
1652454946.5699506 -4.124659522204794 63.606559780801604 -0.15827314814348914
1652454946.9699087 -4.124819926674586 63.606727573737984 -0.15802384992146806
1652454947.7686124 -4.12511419877924 63.60664064346836 -0.1579286211706672
1652454948.16981 -4.1248597178602395 63.60653650865001 -0.15801929427383465
1652454948.5722382 -4.124968094035914 63.60638220212637 -0.15821051057433827
1652454949.3696845 -4.124937342389256 63.60676138523643 -0.1584421277860517
1652454949.7695558 -4.1241343335390255 63.606809431024786 -0.15880628694472532
1652454950.9682007 -4.125511421210355 63.60655178316257 -0.15773565401774647
1652454951.3682163 -4.125778942490367 63.60655701458266 -0.1574497928474337
1652454951.7682364 -4.125958809732214 63.606752862918256 -0.1573920318502976
1652454952.5682104 -4.126359294808701 63.60682945006831 -0.15779820306524223
1652454952.968242 -4.1261901159931575 63.60640380460501 -0.15778144363745056
1652454953.368234 -4.125970238510359 63.60582821673603 -0.15792367201917523
1652454954.1681857 -4.126435452124845 63.606074283444926 -0.15818451875475475
1652454954.5682447 -4.126354866250683 63.60605600438269 -0.1582321975778126
1652454954.9682188 -4.1261627745022835 63.60607098583275 -0.15823227804013162
1652454955.7696946 -4.171410554153773 63.61415094148177 -0.16159465142175616
1652454956.169712 -4.7484254836390924 63.617918292231025 -0.1487398137293814
1652454956.968509 -5.942032276052135 63.65222509591115 -0.13392461800392985
1652454957.369765 -6.523825786055191 63.67364065659254 -0.131345804917546
1652454957.7685194 -7.100572106875337 63.703033038097274 -0.13071773156800226
1652454958.968366 -8.843770031943912 63.67746790132317 -0.07289597996180419
1652454959.3697214 -9.425651689429053 63.61407885222776 -0.04691125855814754
1652454960.1697161 -10.523646535167678 63.35069234686837 -0.04526000094747423
1652454960.5685894 -11.034185951141797 63.13055270689898 -0.04253404504542774
1652454960.9698439 -11.537992977560844 62.84760547165852 -0.03433288159875697
1652454963.36919 -13.386622579182148 60.18881585291419 -0.029109896623081832
1652454963.7679188 -13.392306208147676 59.62786721491945 -0.04328354174520599
1652454964.1702034 -13.365672913532936 59.029549444499544 -0.03660429276514732
1652454964.9701734 -13.20159738344854 57.819200269450086 -0.014715691744826898
1652454965.3689325 -13.103062413968903 57.232596673967585 -0.01631078175450207
1652454965.7689638 -13.01119485120795 56.641596700147474 -0.014931667547151584
1652454966.5689642 -12.826879735879277 55.4253000390971 0.001507443674028719
1652454966.9702222 -12.742782488028897 54.82971108944723 0.0028677444131441354
1652454967.369097 -12.671171572737155 54.23120522624526 0.00015529111499840154
1652454968.1689172 -12.53507298361243 53.03465137360129 0.0005375120145327261
1652454968.570073 -12.465986661651513 52.461889240532614 -0.0049390235832761364
1652454968.9688873 -12.409106241403226 51.87349853797553 -0.0018275272449078672
1652454969.7688231 -12.308479532836692 50.69781834697491 0.013910830563426568
1652454970.1700807 -12.269833409358917 50.106353385243075 0.022400637979445803
1652454970.570194 -12.244686169674996 49.49955802499516 0.032921727139179735
1652454971.368946 -12.221386061813146 48.322605599557214 0.045990853572887236
1652454971.7702715 -12.21055528225499 47.71431550461567 0.05422466092091932
1652454972.9701788 -12.220803245566517 45.942205132645014 0.06866925792874273
1652454973.368946 -12.23866452038381 45.3238776083751 0.07247108934838553
1652454973.7689528 -12.253219452068908 44.6633256380539 0.08548619496959126
1652454974.5691793 -12.263429123457687 43.55312459830868 0.05761165738768553
1652454974.9692085 -12.248796948652798 42.90996817489013 0.08974962206899223
1652454975.7691956 -12.167802821828154 41.723925986260724 0.0732104159482011
1652454976.1692505 -12.103804062632372 41.13620397170739 0.07859216338409969
1652454976.569217 -12.023684794877568 40.55908392420298 0.06455070996103363
1652454977.369241 -11.862135862288124 39.36953185441539 0.07061982050665688
1652454977.7691624 -11.77865918476697 38.77404305561696 0.06367392946759631
1652454978.1691883 -11.681450686775394 38.17883754578225 0.07038868364524026
1652454978.969182 -11.495639244330382 36.97971138475374 0.055797148217520576
1652454979.3691688 -11.393678691312587 36.4011728458017 0.03992306589682376
1652454979.7692614 -11.266516862150894 35.81767967405331 0.03620828402717069
1652454981.3700998 -10.208569699210436 33.7488209781375 0.05588940343859167
1652454982.1700943 -9.334904601421224 32.9352656156027 0.06314068230082548
1652454982.5700724 -8.809044808844913 32.60573215096778 0.06622687200102728
1652454982.9688287 -8.281362479267544 32.34619989736517 0.06068209388580381
1652454983.7700746 -7.090753489648552 32.195381291674735 0.05591647838204844
1652454984.1713264 -6.471144738413017 32.19813107818005 0.05360711955265102
1652454984.571469 -5.874193729027915 32.22312905191061 0.047850856340420966
1652454985.3689249 -4.669120439648166 32.31643771209433 0.048750012462038084
1652454986.1701005 -3.40764788659396 32.374363273428074 0.046187187310708644
1652454986.9700594 -2.20425615289005 32.36546288334134 -0.00980070579679776
1652454987.369939 -1.6377702681787945 32.32117669556734 -0.034363510195228986
1652454987.7699523 -1.0334547471922662 32.24356830973469 -0.032534453601586466
1652454988.5699537 0.13155022016923112 32.02020234525213 -0.04060127584632117
1652454988.9699523 0.7067445626453086 31.852587339192684 -0.04411279784121752
1652454989.7706716 1.7762894553485644 31.46324795615218 -0.05375237568734975
1652454990.1705644 2.290633841656181 31.190403136937498 -0.040397903895027565
1652454990.9705956 3.269526420698636 30.576393144185616 -0.023550314937543504
1652454991.3705885 3.739973307313196 30.223750903605673 -0.007412726103326717
1652454991.7731206 4.197949369912951 29.856055878246977 -0.0003772877301009836
1652454992.5743048 5.032833981533319 29.02013973504711 0.012839584850702745
1652454992.9716933 5.403533391728274 28.54926594344551 0.01961416635037988
1652454994.1715987 6.266316553386176 27.098531104367286 0.01313518918549883
1652454995.7734778 6.463690294054178 25.28795004249472 0.014887964969622192
1652454996.1710806 6.443755736991314 25.157833257296605 0.030681535713837194
1652454996.571002 6.440763228920929 25.165537621574522 0.020549047796824205
1652454997.3709185 6.441592578764119 25.16878834827134 0.01953844606603372
1652454997.7708194 6.44164309917938 25.16875547388615 0.019902642077815225
1652454998.1709573 6.441832161342294 25.16920967855568 0.01991596750214597
1652454998.970817 6.441873321982406 25.16919566805029 0.019840061126946917
1652454999.3708913 6.441950221802465 25.16956928652705 0.01977641142657166
1652454999.7709913 6.441891982695417 25.169808357213412 0.01978140536003531
1652455000.5709257 6.442045750540743 25.17031755539022 0.019945190383495903
1652455000.9708223 6.4420055287476 25.170015252991302 0.01992610180805099
1652455001.3708417 6.441909852162063 25.169846303422794 0.019924089020549318
1652455002.1707973 6.442080856179874 25.169778565130898 0.019691902126151073
1652455002.5720174 6.442069199766859 25.170076338525988 0.019703893839139452
1652455002.9720016 6.442265407962537 25.1701704313127 0.019636839715721333
1652455003.7709374 6.442068775509689 25.16996205737491 0.019794279857540842
1652455004.5708544 6.442040138951491 25.17006653997467 0.01986964993127116
1652455004.9708364 6.442154274592443 25.17012469242559 0.019876883639461274
1652455005.3709931 6.4420285166593985 25.16969126954469 0.01977623303304843
1652455006.170995 6.442161089648398 25.169655150982305 0.01940390119845975
1652455006.5709355 6.442083244489755 25.169606861902594 0.01943485767555897
1652455006.97082 6.442109371956832 25.169735456705883 0.0194750292329115
1652455007.7722013 6.442096332844773 25.16953042980788 0.019539890142745542
1652455008.1709228 6.442151704177721 25.169639270083735 0.019586116816913968
1652455009.370925 6.442080659091214 25.169360802262467 0.019868718286663423
1652455009.7707844 6.442197885605946 25.169659051320394 0.019845971551157693
1652455010.1706958 6.442306800120349 25.169571332639105 0.019803539358432543
1652455010.9706635 6.4422929046617625 25.16928985455975 0.019589324860602275
1652455011.370547 6.442362752660625 25.169385340465993 0.01978701774359315
1652455011.7705872 6.442708488223889 25.169841282197865 0.019733938319209943
1652455012.5706072 6.442794579459417 25.169919926159615 0.019831602554803818
1652455012.970609 6.442902122176552 25.169918245602812 0.019929126637548644
1652455013.370649 6.442806152177539 25.16981014471413 0.01973530854609251
1652455014.1706033 6.442741569632666 25.169350181043495 0.019933367291123993
1652455014.971844 6.442822268835954 25.16963480595752 0.01954227979649109
1652455015.7707016 6.442573554477523 25.169287259582767 0.019843132873327785
1652455016.1708336 6.442421379212586 25.16973477816384 0.019850821137008867
1652455016.5708606 6.4424884059446335 25.169788292235275 0.019972595471898835
1652455017.3709443 6.44242936926771 25.170094113361962 0.020280103746796396
1652455017.7709517 6.44235837015578 25.16996036885996 0.020371845407951117
1652455018.1709974 6.442401570263474 25.17032320533803 0.02026177961239689
1652455018.9709482 6.442080122367461 25.169615112362067 0.020059031893573387
1652455019.3709376 6.442231720349334 25.170027152186464 0.019932072580899962
1652455019.7709553 6.442086899135042 25.16970563854149 0.01990530810643848
1652455020.5702038 6.442085228700943 25.169695882789444 0.019923252323992224
1652455020.970188 6.442069744869258 25.169648842208936 0.019966788979460193
1652455021.770199 6.442141816369098 25.169918475428865 0.01985531753680464
1652455022.1702027 6.442072184355926 25.169709205670486 0.019808366708518044
1652455022.570237 6.44213624954163 25.169898016155393 0.01974853649163716
1652455023.3702571 6.442076261120356 25.169728014600555 0.019732238207723407
1652455023.7702014 6.442160561779286 25.16995165699672 0.019612061265994518
1652455024.1702554 6.4421673575022425 25.170170239829837 0.019639002490856206
1652455024.9714208 6.442000445810947 25.169511401059957 0.019786913059520628
1652455025.3701131 6.4421945180690265 25.170005400604012 0.019749036896910488
1652455025.7700896 6.442186153190416 25.16977588158837 0.01964126832429325
1652455026.5702214 6.442190616905812 25.169826021931627 0.01956206367578006
1652455026.9702208 6.442102817137165 25.169717912158642 0.019591855216950838
1652455027.3702245 6.442264515339524 25.170318225015503 0.019684219336658204
1652455028.1702137 6.442450660480809 25.170296445891786 0.01930651555060009
1652455028.570201 6.442409090892781 25.170233898032137 0.019106545286992405
1652455028.9702115 6.442377817376741 25.170146406986166 0.018849637716352563
1652455029.7701833 6.442457895506976 25.170249866002443 0.019110327428578877
1652455030.1701863 6.442469010784521 25.170299768352297 0.019192998364482572
