1652454174.3868942 -3.2836357812828654 22.258297047153146 0.45122624241258913
1652454174.7868571 -3.6043393499701426 22.719536527731616 0.4499836088996044
1652454175.5869355 -4.167327069202405 23.66519151656024 0.45263457274424906
1652454175.5869355 -4.167327069202405 23.66519151656024 0.45263457274424906
1652454175.9870172 -4.4092315845432175 24.151345395827196 0.45578610491380656
1652454176.3870401 -4.64898783111591 24.64746795318287 0.4571647317663309
1652454176.787042 -4.864499310552233 25.175837624463416 0.4565386558745372
1652454177.5870433 -5.190890240916009 26.246385782518875 0.4527179588064331
1652454177.5870433 -5.190890240916009 26.246385782518875 0.4527179588064331
1652454177.9871705 -5.301004766349419 26.787697501833346 0.451365515166399
1652454178.3877654 -5.381930000860686 27.339787761745846 0.4515853063039246
1652454178.7865562 -5.42453821312802 27.878305946948508 0.45118912223265933
1652454179.1877942 -5.426726269226533 28.423756516290666 0.4518022464797132
1652454179.587792 -5.42567125971255 28.96578210210641 0.44812892867350745
1652454179.986506 -5.406167698023086 29.474012105397268 0.44767645621544033
1652454180.3865042 -5.381457201905274 29.993299415801584 0.44350295250577154
1652454180.7877507 -5.332442109846034 30.531298453252234 0.44465328124517495
1652454181.186536 -5.28746178307263 31.057985343247438 0.4410163168400993
1652454181.986536 -5.15968512422721 32.027181111938575 0.4381630329722186
1652454182.3877397 -5.0785183830741065 32.53140314815972 0.4411366342328131
1652454182.787627 -4.974245477424209 33.06523850908123 0.44249549915118414
1652454182.787627 -4.974245477424209 33.06523850908123 0.44249549915118414
1652454183.1877735 -4.874333749373885 33.55686522008237 0.44568530254236155
1652454183.5865438 -4.779905717784895 34.05425831396083 0.44581513637438097
1652454183.987761 -4.689167843766963 34.54985074936614 0.4441974033181401
1652454184.3877676 -4.606527716207734 35.03037892529037 0.44301020896807086
1652454185.1877708 -4.469620182890418 36.07536229394421 0.4336124666926231
1652454185.5880222 -4.39149185178431 36.63879415967858 0.43330379648854117
1652454185.9868503 -4.294552020801368 37.1984468138785 0.44388610449242255
1652454186.3867576 -4.210971769551967 37.78506946870571 0.44614116175179985
1652454186.7879848 -4.113063219348265 38.338984748816806 0.45617269516951664
1652454187.1867747 -4.032675528810812 38.8830223890887 0.45742331868534974
1652454187.5867805 -3.9265739544119715 39.46618893385152 0.4645189027728204
1652454187.5867805 -3.9265739544119715 39.46618893385152 0.4645189027728204
1652454187.986636 -3.8216700279271554 40.0664491291178 0.463741489660744
1652454188.3877757 -3.707409899431758 40.669380131101555 0.46224894355087226
1652454188.7878091 -3.585618055787878 41.27721325361977 0.45822574463026744
1652454189.587777 -3.3629615935257604 42.43931647608754 0.4500519192776745
1652454189.9877598 -3.237159610357355 43.135635106169794 0.4239764103143959
1652454190.3866289 -3.0901577254159993 43.75073968619342 0.39804736194638457
1652454190.7878942 -2.9963288548927047 44.19173283058647 0.38398526431363184
1652454191.1866658 -2.869073849594929 44.77417696525558 0.3933768332791013
1652454191.590398 -2.733726791975014 45.400036899605155 0.3959718807468171
1652454191.9866683 -2.5955460048762915 46.003644068118376 0.38685090897195445
1652454192.3891196 -2.4275502824430135 46.596518411276705 0.3730108295506682
1652454192.3891196 -2.4275502824430135 46.596518411276705 0.3730108295506682
1652454192.7876337 -2.289378958949164 47.172455001792315 0.3603117371457817
1652454193.1876404 -2.137924051661488 47.75908417786425 0.34695533369152004
1652454193.5888896 -1.987505429777359 48.33547027965872 0.3344364786553249
1652454193.9889598 -1.8194230401085636 48.89599025878007 0.329908994351499
1652454194.7891917 -1.471847941049629 50.11044940127219 0.30222183182596213
1652454195.5891855 -1.1235706790468811 51.287758369644585 0.24342328396543342
1652454195.987762 -0.9447589067938974 51.85633263363989 0.21928049759745746
1652454196.3876345 -0.7799377619078643 52.4025742686915 0.2005244579945863
1652454196.7876425 -0.6324302205299754 52.90636714339642 0.19913614340043057
1652454197.187508 -0.4537703493181545 53.44032923469058 0.20311582038405895
1652454197.187508 -0.4537703493181545 53.44032923469058 0.20311582038405895
1652454197.5875869 -0.27858604046011876 54.010405723092376 0.2098074891326087
1652454198.3875217 0.06574760050976362 55.11383582189739 0.21938564970499488
1652454198.7875266 0.26504711691344074 55.713740255765835 0.21914282547614514
1652454199.1875198 0.4621361480825853 56.28641537545272 0.2119909501231532
1652454199.587532 0.6586072440648606 56.85470360607304 0.20052411144897117
1652454199.987561 0.8723903943691755 57.439854342070035 0.18655945818797082
1652454201.5885348 1.7516514953453075 59.64246700314302 0.13295197974900427
1652454201.987359 1.9581171251695975 60.14532412527399 0.13052232260971455
1652454201.987359 1.9581171251695975 60.14532412527399 0.13052232260971455
1652454202.3884346 2.2069781163318427 60.68980921232358 0.14689344333113707
1652454203.188503 2.7444316289055113 61.81357352128609 0.15492981404103331
1652454203.588526 2.9906532585726358 62.348924195902065 0.15133230709874138
1652454204.3873043 3.3694770599238058 63.36514342073724 0.16119960020121873
1652454204.7875042 3.5941951695768015 63.87285400083099 0.18347526361569738
1652454205.1875327 3.8873380201355787 64.39717708237235 0.21900174941781578
1652454205.5875392 4.182349259433734 64.94460898774645 0.24284903005564193
1652454205.9875677 4.458862919064024 65.5000171491644 0.2492529653526308
1652454206.7876482 4.988785153251266 66.58638568656687 0.2485732931252441
1652454207.5876503 5.545500463825511 67.66168959822855 0.2526112864703519
1652454208.3876407 6.089210600204055 68.74180997315331 0.2478009822531296
1652454208.7876468 6.371144302884593 69.28993771991328 0.24181633039517758
1652454209.1876264 6.66248555267427 69.83733693923351 0.232091610211203
1652454209.5876458 6.954727853887631 70.35805737351141 0.22270467263302343
1652454209.9876344 7.247778702828861 70.90454783794713 0.20916341745547282
1652454210.3876288 7.551883158257713 71.4678393708805 0.1906365817875224
1652454210.7876234 7.84327049004714 71.98009434376533 0.16131548807511542
1652454211.1875863 8.146765436700667 72.49025038297272 0.13967174870776775
1652454211.5875378 8.455138827547463 73.00586675713004 0.1283941388660572
1652454211.5875378 8.455138827547463 73.00586675713004 0.1283941388660572
1652454212.3875384 9.065484952417744 73.98570626259004 0.12016708425165057
1652454213.1875348 9.712281108409549 74.97069460201506 0.12482467829203278
1652454213.5875514 10.004830435734648 75.45800690378125 0.12590785295182438
1652454213.9875355 10.309838722603962 76.0109957053718 0.12346562629264397
1652454214.387517 10.644116710334368 76.55725072612861 0.11262190334622961
1652454215.1875145 11.309984129077606 77.52056959217806 0.09096739319284987
1652454215.5875008 11.663070456911711 78.00748605099048 0.08798738538897687
1652454215.9887621 11.982728241837256 78.49440173746095 0.082981688951056
1652454216.387514 12.269328925268377 78.98483075933196 0.07614823582527673
1652454216.387514 12.269328925268377 78.98483075933196 0.07614823582527673
1652454216.787548 12.492679222257784 79.4078818786834 0.07412921830903346
1652454217.1887674 12.683655039597134 79.83858410512136 0.08395475753906231
1652454217.5875578 12.814185842926802 80.29828332658822 0.10510854422320447
1652454217.9875615 12.916574556815315 80.82586956217818 0.1382048161376783
1652454218.7875223 12.974189553428445 81.91330232311775 0.2027427190216556
1652454219.188878 12.88764985035524 82.43721090385442 0.21615862546246478
1652454219.5876825 12.728602879440851 82.96894959999625 0.22712346609950584
1652454219.9876547 12.501345666895185 83.47760491829659 0.23459731326213543
1652454220.3876338 12.235333200637308 83.93198168530989 0.23829227096872943
1652454221.1875017 11.760596396238459 84.48319109237083 0.2349613109643215
1652454221.1875017 11.760596396238459 84.48319109237083 0.2349613109643215
1652454221.5873783 11.40031273458887 84.62890251800441 0.22886392467519343
1652454221.9872484 10.83453200887557 84.75398641946674 0.22459784996508741
1652454222.3884296 10.28450560007766 84.82775404140823 0.21722314167663373
1652454222.7883828 9.652362803438976 84.87451909585475 0.2099822352256611
1652454223.1884193 9.039371460324782 84.88347767747396 0.19504488684631047
1652454223.5884197 8.442481847401792 84.8858896729848 0.17721018827598192
1652454223.9883912 7.816575588200611 84.8761736772865 0.15927698902053866
1652454224.3883672 7.231040052582426 84.894662889775 0.1416948895860233
1652454224.788233 6.695448625595204 84.92219320959452 0.12777783280681443
1652454225.1881735 6.140296833566153 84.94126090195347 0.11894488954091789
1652454225.5881777 5.556051994908315 84.95224981269065 0.11479173499396679
1652454225.988125 4.9384815534917195 84.94775093759986 0.11031262428298226
1652454225.988125 4.9384815534917195 84.94775093759986 0.11031262428298226
1652454226.3878813 4.335844698089302 84.92787434871624 0.10112992488664255
1652454227.5869896 2.6032716909918494 84.87897938239821 0.07172539189537296
1652454227.9868853 2.050083889064735 84.88114814639681 0.07162108253656121
1652454228.3867366 1.471252973372502 84.89535393070344 0.08287274015007556
1652454228.786612 0.8829883607974911 84.90884422303456 0.09808487380620348
1652454229.1877556 0.2911846016305158 84.91202873020464 0.11206247934089814
1652454229.5877426 -0.3114424414639969 84.91563971333375 0.12438104337921478
1652454229.987779 -0.9141827153408592 84.90511835235138 0.1317218196205577
1652454230.3878338 -1.5058798747173163 84.89409839754906 0.13585262011856974
1652454231.1878026 -2.702797861473315 84.88069688234863 0.14528345590493386
1652454231.5877702 -3.2952354916069675 84.87844683591935 0.15071648887395384
1652454231.9877713 -3.8679943617166392 84.86971632888931 0.1586248263089623
1652454232.3877516 -4.469027460097858 84.861074758405 0.1663011251337407
1652454232.787778 -5.030733180180775 84.8513003111223 0.17939021337138153
1652454233.5876522 -6.154747925142601 84.77009265756554 0.20598049736583687
1652454233.987828 -6.63484845942794 84.65150569637082 0.21009114038297516
1652454234.3877726 -6.988384704273943 84.56022800261273 0.2107249994519648
1652454234.7877295 -7.129420854032288 84.55274914528846 0.2146532623692481
1652454235.1877854 -7.130029264881023 84.631225569641 0.2185684445006666
1652454235.587653 -7.114104591359227 84.66000246327259 0.21845337080706922
1652454235.987899 -7.12109627070421 84.66099995007593 0.21856417068419876
1652454236.3867648 -7.117884404811763 84.47863089147307 0.21664601284074275
1652454236.7868986 -7.118678420566213 83.93346079856087 0.19791413246662692
1652454237.1867707 -7.1306220963782945 83.35804608283932 0.1771336152294929
1652454237.5868368 -7.111138264365204 82.80036608688896 0.16516301048368381
1652454237.9893072 -7.045607730037502 82.19743760718477 0.15597581412940215
1652454239.5880718 -6.721901883885548 80.00928432139636 0.1038247166029023
1652454239.5880718 -6.721901883885548 80.00928432139636 0.1038247166029023
1652454240.3892312 -6.6795078279089735 78.96001989297942 0.10834746006849813
1652454240.7892673 -6.675825997412072 78.37444255952965 0.11525678166729342
1652454241.1892607 -6.7016917079253435 77.82095821354599 0.12029766573406497
1652454241.1892607 -6.7016917079253435 77.82095821354599 0.12029766573406497
1652454241.5898037 -6.74096405324674 77.25527188149557 0.12066951324285197
1652454241.9894326 -6.80247851707075 76.72185042203553 0.12023667167923366
1652454242.786879 -6.996631298342309 75.73545573389347 0.12914614710412095
1652454243.1881156 -7.136372283346547 75.23588650818617 0.1396570588986957
1652454243.5869017 -7.313912385723787 74.73756367147716 0.1533706459494125
1652454243.986891 -7.508037936183253 74.24515876110951 0.17004519836839938
1652454244.3869414 -7.7298794492131835 73.76817777856273 0.18781110547258656
1652454244.7869034 -7.971390559992825 73.29363415320643 0.20649223289063742
1652454245.1867933 -8.252210177750944 72.79314086618639 0.2256169026298742
1652454245.5879781 -8.478457961373069 72.35708523189425 0.24362188174164007
1652454245.987908 -8.625393415650073 71.98252321279614 0.2571898696897028
1652454246.3880699 -8.799279054450658 71.44746969237829 0.26921831241675737
1652454246.7870185 -8.938565089579688 70.98508498286849 0.27804628440551066
1652454247.5869644 -9.029048009965956 70.01680632797425 0.2869826375890685
1652454247.9881842 -9.062440561803408 69.43091107372682 0.2929301877518259
1652454248.7881691 -9.108999887802067 68.2346963834813 0.3074542065046001
1652454249.1870196 -9.106158893159268 67.63739809494783 0.3126397066363051
1652454249.587003 -9.111479897084498 67.00212604159029 0.3115951366227793
1652454249.9882874 -9.113561256332938 66.41421753748932 0.31175990794191744
1652454250.3882847 -9.109836193898415 65.82906193516484 0.31382054556259825
1652454250.7872036 -9.09421461565689 65.23493869105725 0.3172497981535589
1652454251.1876433 -9.071708571961942 64.6243352147552 0.31850209611161984
1652454251.5876243 -9.049533875916264 64.04838986445999 0.31907276195359013
1652454251.987766 -9.018941738726296 63.61837128403668 0.3185024695938956
1652454252.7877421 -9.040511012591995 63.334491999733515 0.3202412555172882
1652454253.1877754 -8.763926642322632 63.05838072934353 0.317816251801289
1652454253.9880514 -7.9927613729276645 62.4140957220143 0.3009571575285858
1652454254.3881204 -7.569587806165923 62.10964212190109 0.2894424181241491
1652454254.7881231 -7.106335346008165 61.83162517758565 0.27982151728371196
1652454255.188147 -6.5712620787039695 61.56883129808071 0.2718654167607282
1652454255.5879815 -6.041028150105805 61.32788499375927 0.26338704055907086
1652454255.9878585 -5.51086591104503 61.11662952282392 0.2571139383390527
1652454256.387726 -4.945939179058217 60.91606133840806 0.25043123142731005
1652454257.1878247 -3.8365542312582845 60.56221674030659 0.22997065025025798
1652454257.1878247 -3.8365542312582845 60.56221674030659 0.22997065025025798
1652454257.5879557 -3.313912093819302 60.42416162175952 0.22111937201325005
1652454257.9871585 -2.7550993534038097 60.29408327810442 0.21558993645757737
1652454259.1872818 -1.010098241367115 59.97633778779553 0.20158869763357457
1652454259.587233 -0.4298009411032422 59.88380186857618 0.20105954252328578
1652454259.9872427 0.1904524957703781 59.79337315405591 0.19723641547123366
1652454260.3872743 0.9062625736533125 59.71107875328346 0.16432703317809416
1652454260.7885387 1.4146563810961497 59.651354526343155 0.1445603432999806
1652454261.1873348 1.7926792858434353 59.61319193797606 0.14299413883698583
1652454261.58852 2.420829638528703 59.503887050761406 0.18621048291101042
1652454261.9873176 3.0387990525099307 59.397394446002394 0.21672617617725054
1652454262.388702 3.6499562052806245 59.275276934771526 0.22745192132110925
1652454262.7879925 4.341900174384337 59.123238889797705 0.21412502423238913
1652454263.1880507 4.972164438911193 58.936281785148616 0.19556703711818463
1652454263.5880165 5.514619965006813 58.723312331379866 0.18268099178350464
1652454263.988002 6.045971892170994 58.4678683168291 0.19622259980285991
1652454264.78799 7.036989650728535 57.864122558530106 0.23341191661035082
1652454265.587971 7.64544782701753 57.27270433453227 0.256111047222102
1652454266.3890228 7.7525700608024035 56.31958234811234 0.24784573403089374
1652454266.787743 7.7425213913363224 55.82709565729182 0.24386774776202866
1652454267.187726 7.608639945718937 55.34661113939026 0.23607974788205552
1652454267.5876498 7.338106040700403 54.85461741736093 0.2226419361251949
1652454267.9876487 7.095587710322023 54.39057903440141 0.21810122468957457
1652454268.3877916 6.772885221309752 53.90469868361558 0.23486858848402062
1652454268.787768 6.370049717901634 53.40773065628952 0.26196511156453967
1652454269.1876597 5.9728807161216295 52.93050149356967 0.2759256868100426
1652454269.5878065 5.559995998741687 52.45455692537468 0.27324856654766494
1652454269.9890788 5.130246572836552 51.99709827035424 0.26864028937438555
1652454270.3877656 4.7272309109968225 51.58711964841184 0.2659484908809383
1652454270.7877522 4.31903943168881 51.17940089020409 0.2665456490987071
1652454271.5877926 3.5330006711165556 50.358402090240155 0.28753159082780133
1652454272.3879757 2.757260671795291 49.43675860220522 0.3069386340357033
1652454272.7878745 2.3543997538481984 48.98136550378512 0.30901726857942735
1652454273.5878522 1.6241465018834222 48.07638775902871 0.3159079311344321
1652454273.987629 1.2554854286941395 47.585531655894016 0.31469530572660676
1652454274.3874748 0.8695547545393633 47.081308772647745 0.3088943636558415
1652454274.7886515 0.5297481158449763 46.61341491611433 0.30013725966940386
1652454275.1886976 0.25234726040678507 46.13554353420178 0.2941335132718738
1652454275.5886164 0.0011494378047069392 45.649085053939864 0.2939118870322357
1652454275.9886346 -0.19019932075986956 45.196424680907406 0.3001010881343198
1652454276.788638 -0.599213337417428 44.0890656011661 0.3324955755955977
1652454277.188647 -0.7424820339050533 43.548077835643085 0.3318277687685014
1652454277.588742 -0.8475492168432708 43.05968330187815 0.34191083954355816
1652454277.98888 -0.929188302331707 42.493075071317286 0.35800213127927244
1652454277.98888 -0.929188302331707 42.493075071317286 0.35800213127927244
1652454278.3877811 -1.0231575476419206 41.9325266554965 0.3791080167789691
1652454278.7890615 -1.120407900846871 41.34042973392876 0.4006588200081973
1652454279.187745 -1.175942116925507 40.7285491200261 0.40757067847619316
1652454279.5877411 -1.2029642957714963 40.12407832136848 0.4069619594522489
1652454279.9877582 -1.2128295729760379 39.49448263433727 0.39653912239121125
1652454280.3877354 -1.2405195366170634 38.88198395282282 0.3917137779293551
1652454280.7876165 -1.2841800574109474 38.32196772713587 0.38788782140110056
1652454281.1887589 -1.3873856375490163 37.75794155308336 0.3866235949911591
1652454281.588738 -1.5307429367538115 37.210157423310804 0.38792390750120487
1652454281.988769 -1.6953787614243307 36.74755003794945 0.38475153620949903
1652454282.388774 -1.9018844952035383 36.37288606873281 0.39247388944692185
1652454283.5887659 -2.7497031330994175 35.63061180014901 0.42225900853347315
1652454283.989029 -3.211035924076134 35.541017561826344 0.435924098407558
1652454284.389055 -3.856320851357976 35.45237684791249 0.4416143993274491
1652454285.187777 -5.083846075440299 35.36410026183442 0.4398930555879363
1652454285.187777 -5.083846075440299 35.36410026183442 0.4398930555879363
1652454285.5878894 -5.652073085124446 35.34317390049792 0.43878678748913985
1652454285.9891822 -6.207956661615146 35.33250115381199 0.4402558852738734
1652454286.3892934 -6.791769895194842 35.32321742615463 0.4394389179160859
1652454286.789365 -7.348463904999007 35.293399299697654 0.4356263020219581
1652454288.388253 -8.920144348466968 34.93972852229756 0.4349882766603141
1652454288.7882571 -9.391531248344481 34.73938748139995 0.4384722977348465
1652454289.1882567 -9.803102031719137 34.52965578569891 0.44099437893985516
1652454289.588234 -10.190498133560032 34.29382906792857 0.4426350870251931
1652454289.9885178 -10.485142416118967 34.121490473731136 0.44153422161897565
1652454290.7885427 -10.784670152305393 33.77488907381159 0.4421448985211936
1652454291.1886187 -10.804280858988458 33.496021263499195 0.4418123764848369
1652454291.5887618 -10.79865730990181 33.25173276408756 0.4419407318657735
1652454292.388759 -10.411040509769887 32.86411053299213 0.4516019105113767
1652454292.7900715 -9.880505267679409 32.657074209553095 0.460615570187601
1652454293.1887512 -9.332022952239715 32.51400567465491 0.46057982962894634
1652454293.5887392 -8.732977936454136 32.42388271875306 0.45658527875140165
1652454293.9886086 -8.12395865749704 32.36103258230487 0.4459815940999596
1652454294.3885152 -7.578283823560868 32.32470714936176 0.4476832334428583
1652454294.7885337 -6.9575704821063935 32.32258488572947 0.44613473682513205
1652454294.7885337 -6.9575704821063935 32.32258488572947 0.44613473682513205
1652454295.1885455 -6.363596265397586 32.34387052716869 0.447636870338234
1652454295.588546 -5.775394663160452 32.38782008539035 0.4461019321305117
1652454295.9885495 -5.200949195829818 32.4618147935309 0.4450818856484949
1652454296.7887735 -4.015575392343201 32.68508490706273 0.4414004240042455
1652454297.1887584 -3.4165511980046244 32.81567680830349 0.43346214666742894
1652454297.588864 -2.8007637842457505 32.977373614263456 0.41844225465413376
1652454297.9888756 -2.2447832219607813 33.11210681073024 0.39823445786946976
1652454298.3888853 -2.267625773133186 33.09335827841904 0.3966172044120754
1652454298.7887826 -2.244893109788592 33.09968230215659 0.3972106726363047
1652454299.1888843 -2.251127342809457 33.09759727878151 0.3970158133763323
1652454299.5888774 -2.2504691434485644 33.097987549861365 0.3966241097334924
1652454299.5888774 -2.2504691434485644 33.097987549861365 0.3966241097334924
1652454299.988775 -2.250090479677981 33.09792619682144 0.3963642176963607
1652454300.388787 -2.2501942847856844 33.09853116575063 0.39631630916655763
1652454300.7886665 -2.250352973535905 33.098591232566974 0.39625882010569724
1652454301.1887512 -2.250382527408482 33.09854961423482 0.3962182431066075
1652454301.5887408 -2.2503952485382537 33.09862916540792 0.3961994100027804
1652454301.9885159 -2.2512164901433978 33.09800182392712 0.39621082515326006
1652454302.7896562 -1.7348538839619008 33.29622236746122 0.38144735338154584
1652454303.1896143 -1.301757436010532 33.443344781068134 0.37756807059063496
1652454303.9881294 -0.17813682654967317 33.777238050876 0.3777380731344027
1652454304.3881636 0.40637473578499933 33.92345443153473 0.3731032834605131
1652454304.3881636 0.40637473578499933 33.92345443153473 0.3731032834605131
1652454305.1897671 1.5567354897703103 34.153266705989104 0.35501254578143415
1652454305.9884977 2.725446644077399 34.273481182531505 0.3552442182701692
1652454306.3885279 3.310822715223697 34.27698961290386 0.363183387232105
1652454306.7885585 3.9425197124803395 34.24516315089822 0.35715047894868074
1652454307.5883675 5.133306944783546 34.03986048983202 0.3566039498676856
1652454307.9886186 5.728122201303589 33.85092322675015 0.35372261304640973
1652454308.7889493 6.747037780551691 33.3850222291569 0.36073049760550563
1652454309.1888778 7.2221487232537855 33.053368231280814 0.3653325224332112
1652454309.1888778 7.2221487232537855 33.053368231280814 0.3653325224332112
1652454309.5887618 7.652102677820571 32.6635066248528 0.37119325816786236
1652454309.988794 8.032493319865967 32.20972446706271 0.3730261419404135
1652454310.38877 8.357525905612073 31.724780897245296 0.3735416192223597
1652454311.5887854 8.719959547237236 30.117228517821523 0.3863900842396798
1652454311.98878 8.62535948386939 29.597224976271463 0.39743927033145227
1652454312.3887978 8.427941400569871 29.11162522787538 0.4056713088125794
1652454312.7887208 8.08680976015431 28.621778659951325 0.4130054415803375
1652454313.1885965 7.6360881532657 28.126162392281923 0.4088668719014869
1652454313.9885314 6.6647841034482935 27.325159272396967 0.40520912436585366
1652454313.9885314 6.6647841034482935 27.325159272396967 0.40520912436585366
1652454314.3883917 6.12049196905499 26.97287193740036 0.4041763841784536
1652454314.7896156 5.55774164323261 26.732797724851345 0.39902229826185226
1652454315.188499 4.928470235804103 26.585729895806953 0.4012130845053322
1652454315.5885444 4.325978762746303 26.55461241723165 0.40335021852699
1652454315.988578 3.710319232607348 26.60476331362726 0.4086932398539766
1652454316.38853 3.0849890083897464 26.70074254971512 0.409381925153418
1652454316.7885501 2.554900864975529 26.7767616057143 0.4080539108210163
1652454317.188526 2.0051938061406114 26.86452308744871 0.40699478112101883
1652454317.588536 1.3969848108604606 26.956283928089015 0.407102603549216
1652454317.98861 0.8167118577948537 27.043685928503393 0.40578999456575904
1652454318.3887868 0.21938258011137138 27.12123208855539 0.4033406381681001
1652454318.7887602 -0.3576559726277938 27.198782151756088 0.40364422729219657
1652454319.18878 -0.9772272900892056 27.273389203158736 0.4017794193437463
1652454319.5887527 -1.5689329615247762 27.331849828292544 0.40019080668794693
1652454319.9887645 -2.1026978421143947 27.384850783485902 0.40052827568434657
1652454320.3887467 -2.65437831659356 27.415587275947782 0.4080424964036901
1652454321.1886063 -3.863698934790842 27.48896728822772 0.44008687506831823
1652454321.5883946 -4.4648452619550705 27.524953935567964 0.44508827497436476
1652454321.9896553 -5.060366570836832 27.555205420996767 0.4466787105703735
1652454322.3885386 -5.659200753093715 27.59219239091301 0.44898869707149774
1652454322.7897818 -6.254390763885861 27.611550109720113 0.45373008382011526
1652454323.1885269 -6.832462564484785 27.60977977892739 0.45570066296974704
1652454323.588677 -7.398743280242281 27.57619834740911 0.45707265010162135
1652454323.9888093 -7.9345305090644755 27.50976027153141 0.46287284845017473
1652454324.3889718 -8.451738150555872 27.412665234122684 0.4740220768899503
1652454324.788958 -9.012652441675831 27.26685028656203 0.48879861091515453
1652454325.188883 -9.541336900181813 27.08678484347695 0.5013805068674533
1652454325.588871 -10.041023989342241 26.870475923619896 0.5051876393994571
1652454325.9889605 -10.511817302823962 26.605063702747874 0.5051019386053416
1652454326.388801 -10.861817126961881 26.40300542541183 0.5029491058541433
1652454326.7889724 -11.078095173213681 26.199790698713024 0.5030673904187317
1652454327.188871 -11.214708322945876 25.911849324404564 0.5029582194205271
1652454327.5888703 -11.299472058402095 25.598790043684268 0.5033102962825983
1652454327.988861 -11.310890550450583 25.266165810750962 0.5027293751169971
1652454328.3889344 -11.13115538533354 24.790910516407816 0.502719352158881
1652454328.3889344 -11.13115538533354 24.790910516407816 0.502719352158881
1652454329.1901107 -10.605502918735413 23.714506796488134 0.515953614378682
1652454329.5887272 -10.32873875054624 23.227277035718398 0.5118535331039452
1652454329.9913101 -10.013948751357459 22.727835434341365 0.5221565485257391
1652454330.3900893 -9.68958369864139 22.216890781354856 0.5267581119635745
1652454330.7900121 -9.372522090038617 21.695274574667547 0.5331607343157014
1652454331.1900287 -9.066136959114626 21.161557883888516 0.5320007975709135
1652454331.5899954 -8.78979231250317 20.622908718671233 0.5321643095365829
1652454331.9900393 -8.52191278205861 20.063984403040518 0.529924322850243
1652454332.3900402 -8.28577554327936 19.51524192522585 0.5293162713078637
1652454332.7900293 -8.043343189111475 18.972277068427818 0.526376228151876
1652454333.1913242 -7.800977403978732 18.436788253952706 0.530194468867517
1652454333.1913242 -7.800977403978732 18.436788253952706 0.530194468867517
1652454333.5898988 -7.540578652363557 17.877561282938448 0.5293264616258649
1652454333.9911861 -7.287217939059335 17.32104800943405 0.5271327402360798
1652454334.3886456 -7.045090437983686 16.770030913863906 0.5231769737069177
1652454334.7886176 -6.793398665483641 16.21506765081509 0.5188343041230211
1652454335.188742 -6.555083040248353 15.65907980033092 0.5107963998985077
1652454335.5887363 -6.335184755849202 15.17153838304656 0.5102256576024574
1652454335.9887667 -6.135795743552823 14.815560012996036 0.5048812308445083
1652454336.3886504 -5.974645425540508 14.554876980746108 0.5038347107804209
1652454336.7887514 -5.803109130207234 14.350192041974031 0.5034467223099026
1652454337.1900032 -5.5138361989548965 14.212154936136661 0.49933363268108344
1652454337.5899055 -5.31788708102474 14.12308413509038 0.4945259664264876
1652454337.9899719 -5.239453724791897 14.043630707009246 0.4930593942718956
1652454337.9899719 -5.239453724791897 14.043630707009246 0.4930593942718956
1652454338.3892593 -5.256335907049354 14.044000540838592 0.4951058203243485
1652454338.7892985 -5.259372194066644 14.041880044893311 0.49542970397954067
1652454339.1892447 -5.255898406765121 14.043105766141641 0.4954327982741868
1652454339.5892498 -5.253608429902356 14.042579345659908 0.49527786626292236
1652454339.989262 -5.253002079977797 14.043064399150738 0.4952258334058227
1652454340.3892891 -5.252623343624939 14.043059557421183 0.49513960188313616
1652454340.7892458 -5.252489424558324 14.043167396114331 0.49501685059455264
1652454341.1891577 -5.252497075946083 14.043220122523783 0.49495524242058475
1652454341.5891657 -5.252506105717076 14.0431958604878 0.4949416472920619
1652454341.989205 -5.252490733507777 14.043306024971013 0.4950098584467234
1652454342.3892946 -5.252407080093521 14.043154971803853 0.49503081463887866
1652454342.7893355 -5.252479197627588 14.043362580131706 0.4950430236610016
1652454343.189286 -5.252528476763777 14.043493663663195 0.49504412274337917
1652454343.189286 -5.252528476763777 14.043493663663195 0.49504412274337917
1652454343.5892792 -5.2526060006133 14.043667320800585 0.4950529887070001
1652454343.989319 -5.252815933210149 14.044197008827883 0.49507253143369906
1652454344.3893106 -5.252763608541196 14.044045681367654 0.49507194745422906
1652454344.789301 -5.252940813127991 14.044395752991575 0.4950794268416118
1652454345.1893008 -5.252889679160681 14.044212649154819 0.4950585662591732
1652454345.9906337 -5.1053458175594475 14.052608909295765 0.4999789868745382
1652454346.3906264 -4.732091452209905 14.050634211902855 0.5015616544222394
1652454347.1895165 -3.855281217623953 14.049164702050103 0.502326798031487
1652454347.5895362 -3.380020464830394 14.045859158798816 0.504018899235721
1652454347.9895527 -2.915437392876324 14.068792803916326 0.501104544780964
1652454347.9895527 -2.915437392876324 14.068792803916326 0.501104544780964
1652454348.389532 -2.500628614767383 14.115139229501146 0.4951789894582635
1652454348.7894986 -2.1527420517321767 14.179301540023346 0.4904914688397406
1652454349.1895113 -1.826497496501152 14.267743768468383 0.4888511738581985
1652454349.9895446 -1.2343499087774767 14.574257559565394 0.4804744317845451
1652454350.3895552 -0.9612353797150053 14.831440654822487 0.47811314234721314
1652454350.7895648 -0.6612881624761966 15.197123822845366 0.47586844853887084
1652454351.5895572 -0.13237848854813336 15.985135819427432 0.4685136945806964
1652454351.989552 0.1131648122161866 16.407894610122373 0.4680413825237276
1652454352.3895347 0.37324453211224223 16.897637146460973 0.4741855434806347
1652454352.789534 0.6280251946226881 17.41742142091418 0.4756668040128381
1652454353.1894934 0.8534179021350583 17.961136906470667 0.4665142734683693
1652454353.5895078 1.030810081575827 18.385321178284407 0.4544285378856569
1652454353.9895573 1.1726858858828413 18.77784549485215 0.44600242837200116
1652454354.7895508 1.4640372353747404 19.64186513141768 0.43361168961250574
1652454354.7895508 1.4640372353747404 19.64186513141768 0.43361168961250574
1652454355.1895766 1.5886454908772714 20.076472612957076 0.43444183718492824
1652454355.5891902 1.7063835587593588 20.492387233212696 0.43001889810674343
1652454355.9893293 1.825312767421077 20.944315446412208 0.433138092508807
1652454356.3892813 1.935906290974927 21.313128539103797 0.4328328981290204
1652454356.7893212 2.039266701994699 21.65022534245159 0.4395217357376162
1652454357.5905337 2.27363402552929 22.49871786759838 0.4377921430685578
1652454357.9907699 2.392039855864521 22.949147599069697 0.4382415173269372
1652454358.3894994 2.4767450465408887 23.37974522257403 0.4331393971847216
1652454358.7895274 2.557516765065074 23.808362699822986 0.4317746950726605
1652454359.1907482 2.6286068726413867 24.297998137170076 0.42576847876460966
1652454359.5895147 2.672651215079177 24.818534130684267 0.42171826100231385
1652454359.9907866 2.6934252615749537 25.316790319636798 0.41579868792498875
1652454359.9907866 2.6934252615749537 25.316790319636798 0.41579868792498875
1652454360.3893778 2.6819538129898226 25.83231410126826 0.41116043598619245
1652454360.7892425 2.6452888611423178 26.416294714498047 0.4113102823201189
1652454361.1905503 2.59291774182592 26.98830711008032 0.4072996195042961
1652454361.5893152 2.5277374907116097 27.585480069919004 0.4041797510348448
1652454361.9896312 2.436382919672495 28.19477117966789 0.3992530878581206
1652454362.7897472 2.228134721650686 29.406718996346623 0.3722041472335286
1652454363.1897333 2.1019232555293197 29.9780187226424 0.35801624514986147
1652454363.5896182 1.96666843790494 30.55107705829675 0.34358044093656587
1652454363.989654 1.8307532862979259 31.13076265202156 0.3361678982010635
1652454364.3908567 1.6963565834356977 31.658295382595792 0.3396197771155275
1652454364.7895627 1.5676431324068403 32.22470746029106 0.34777091063949656
1652454364.7895627 1.5676431324068403 32.22470746029106 0.34777091063949656
1652454365.18958 1.4030970420311395 32.82929060654027 0.35331830654856944
1652454365.5907855 1.2423735531219202 33.39164671317892 0.3553445003992158
1652454365.98943 1.0827310182378695 33.952818927262165 0.35566107819901677
1652454366.7894006 0.7810063692254506 35.1138185384814 0.36696702462396424
1652454367.1892416 0.6555735694973294 35.662261653331306 0.36654732154910513
1652454367.5892541 0.5503079058862705 36.24232453548014 0.36995271634718685
1652454367.9891918 0.4270023235045337 36.837626089852456 0.3750849439333883
1652454368.7902381 0.1954913447020008 38.031206416556344 0.37120210019274896
1652454369.1901171 0.08434503220729524 38.61494801341496 0.36975820077354726
1652454369.5901377 -0.025311239325676218 39.175418592925666 0.368562535946734
1652454371.190011 -0.47765546087858973 41.51441376037495 0.3810855431036964
1652454371.5900407 -0.6199556121910462 42.12291741449687 0.36386088186856835
1652454371.9901128 -0.7360896817384969 42.71482786603126 0.3484512057863381
1652454372.3900156 -0.880306953086766 43.28053382192411 0.33101279137213285
1652454372.7899072 -0.9828612919073524 43.82027059815588 0.3282751878747447
1652454373.1898744 -1.0506462159373382 44.38673979154726 0.34085333464369877
1652454373.9906132 -1.1768294097935967 45.64175929113984 0.34881853424378534
1652454374.389361 -1.2142454338819897 46.21579539573619 0.33686058234715116
1652454374.7903755 -1.2159334637344104 46.80284944475007 0.3309083276264414
1652454375.1903718 -1.2120415929485353 47.42491899527911 0.3210873710546846
1652454375.5904334 -1.1705797594906546 48.04812085025666 0.31362756748445525
1652454376.3916066 -0.9462124542483882 49.2610066328004 0.28565722839787966
1652454376.791488 -0.8735951489612228 49.740272187847324 0.2764809480168861
1652454377.5901275 -0.9027449224229813 50.7375294772969 0.25319529614620573
1652454377.9901197 -0.976522643121263 51.197810668438855 0.24137481999142282
1652454378.39137 -1.1143778714493555 51.66708490098913 0.23633567019182816
1652454378.791383 -1.2917880682126752 52.12097996487441 0.23195920644922594
1652454378.791383 -1.2917880682126752 52.12097996487441 0.23195920644922594
1652454379.1928177 -1.5212449061641107 52.549363564563855 0.2323589450359218
1652454379.5917478 -1.7992026274904223 52.97436760787988 0.2345780296882321
1652454380.3905237 -2.4909854309622332 53.89977434824816 0.2452437967481455
1652454380.7905273 -2.8496323250813296 54.35926407638867 0.250579339353028
1652454381.190543 -3.222838986902191 54.82229754941304 0.25568137304019517
1652454381.5905309 -3.6166990663863303 55.27913497187926 0.2598977082096471
1652454381.990536 -4.009701617629795 55.72851963105248 0.2584812844400263
1652454382.390515 -4.413195286850254 56.18749525301901 0.25736870863975636
1652454382.7905393 -4.81328351119604 56.61750804528929 0.25530440141945315
1652454383.1904943 -5.197370760127149 57.04971843061607 0.25682436903166367
1652454383.5904925 -5.558899637733335 57.49974102486947 0.26258384028564147
1652454383.9906566 -5.93568139501758 57.9517801990416 0.26766395595564835
1652454384.3907564 -6.317111912742747 58.41742553632472 0.2722144046439984
1652454384.790759 -6.705140886767366 58.90457005417774 0.27434856151191617
1652454385.5908031 -7.3944349564128515 59.89689751119109 0.2840484577087012
1652454385.5908031 -7.3944349564128515 59.89689751119109 0.2840484577087012
1652454385.990941 -7.720362442228306 60.41439400876173 0.29036991723638544
1652454386.3910148 -8.02819090841378 60.930990464049415 0.29637693496178114
1652454386.7897384 -8.306331220121448 61.4614501546951 0.3036370928204252
1652454387.1896148 -8.565823935595397 62.01673296482379 0.3130145731262803
1652454387.5898128 -8.801046954744804 62.56871022322748 0.32116391468396377
1652454387.9897559 -9.024088429689787 63.13359078018426 0.32659648720240486
1652454388.3897572 -9.206628488895118 63.71524179297552 0.3314439562620087
1652454388.78989 -9.347020181099504 64.32325851968994 0.33588786438494733
1652454389.1898797 -9.453171364044577 64.9387940973043 0.33849836757795704
1652454389.5898712 -9.51229202962116 65.55789616944377 0.33844654722121686
1652454389.9898956 -9.51639775905496 66.18157302477097 0.3345296960414632
1652454390.3899057 -9.495191526878875 66.7832225930151 0.3318730140598725
1652454390.7899306 -9.464408335963292 67.39438132145692 0.3292151390306221
1652454390.7899306 -9.464408335963292 67.39438132145692 0.3292151390306221
1652454391.1899033 -9.418909894781129 68.01256135527701 0.3242570623124681
1652454391.5898678 -9.3539910650539 68.6210249262272 0.31626693798764205
1652454391.9899077 -9.270064678558134 69.22739982750097 0.31137515532495774
1652454392.3898888 -9.16419505159449 69.83238338304089 0.305011280692143
1652454392.789861 -9.044789082546927 70.4300438683269 0.29827381883342746
1652454393.1897442 -8.921494252962734 71.0230797027441 0.29129230157027386
1652454394.3898602 -8.481659708311097 72.78056753021006 0.2639765621825514
1652454394.789772 -8.349546111742892 73.38848000201139 0.24821993679755697
1652454395.191022 -8.213710874823843 73.9829294790825 0.23106263293782175
1652454395.5898113 -8.087967049534123 74.56921416152709 0.21191662119213345
1652454395.5898113 -8.087967049534123 74.56921416152709 0.21191662119213345
1652454395.9910812 -7.959007197150051 75.15480383538414 0.19345819872616293
1652454396.3910146 -7.834463619283956 75.72342156671172 0.1771765016676505
1652454396.7910192 -7.716299980424373 76.2873012130258 0.1661353460376592
1652454397.1910093 -7.593755277824473 76.84763951143952 0.1584758389284925
1652454397.5910015 -7.48750250720348 77.38900651842714 0.15552172075975484
1652454397.991044 -7.373536625776332 77.97853278268998 0.1530235337240354
1652454398.389934 -7.2466427130009405 78.58943558329236 0.14926138275183495
1652454398.7899482 -7.140962932356309 79.20551907540487 0.13760430820326605
1652454399.1911345 -7.0517534280652 79.7576796814319 0.12634590746905108
1652454399.5898628 -6.986945748340162 80.3260330126321 0.11436624347849624
1652454399.990993 -6.912784567114076 80.89110799858153 0.11052417980195063
1652454400.3910024 -6.813839205042561 81.44853111885897 0.11502604666655783
1652454400.3910024 -6.813839205042561 81.44853111885897 0.11502604666655783
1652454400.7899413 -6.705650115724644 81.9551573668629 0.1287470860322705
1652454401.1899223 -6.586373877687789 82.54422373986712 0.14383745131186645
1652454401.5911605 -6.466039373798023 83.16383371019754 0.15695878297701701
1652454401.9899073 -6.3627325489508895 83.72042722757237 0.16377278397627174
1652454402.3898902 -6.269723478210457 84.20704385749157 0.17494296665079584
1652454403.1910257 -6.058077739619028 85.36735204240475 0.2357027037549108
1652454403.5910509 -5.9368132030940055 85.98249874521436 0.2585790650095534
1652454403.9913116 -5.818391066306252 86.5788000889921 0.268070915421568
1652454404.3900006 -5.705867708770444 87.19139125200249 0.268309288023917
1652454404.791116 -5.5939907854849755 87.78508958283352 0.26787868627844985
1652454405.1910114 -5.486288461067684 88.37963663503955 0.26429506726893354
1652454405.1910114 -5.486288461067684 88.37963663503955 0.26429506726893354
1652454405.5908728 -5.356383406407476 88.95872666368186 0.264243373771187
1652454405.9907572 -5.222685123658065 89.53144779754848 0.26602675896606715
1652454406.3907402 -5.089967134542836 90.12425115739056 0.26922594257597904
1652454406.7907867 -4.9603494864465105 90.70708339522496 0.2730662018452474
1652454407.1907804 -4.825753534540197 91.30358175461632 0.27346553910559246
1652454407.5908697 -4.67194777388792 91.86821659605594 0.27672203413169855
1652454408.3909 -4.331204280506496 93.08226007562973 0.2826652439253392
1652454409.190997 -3.8752943296450764 94.15827759399929 0.277902704387114
1652454409.5910618 -3.5746035801557836 94.64881255587537 0.27259015620361493
1652454409.9910214 -3.245517652700196 95.05839340794591 0.27228399865447733
1652454409.9910214 -3.245517652700196 95.05839340794591 0.27228399865447733
1652454410.3908792 -2.8777848399680157 95.4182827978011 0.2701858357452854
1652454411.190672 -1.9856979297484334 95.95692144610501 0.2689826736084024
1652454411.5906167 -1.4886724502693125 96.10169965129627 0.27121227497901657
1652454411.9906328 -0.9525147741004313 96.16493310891107 0.27440721537909557
1652454412.3906114 -0.4075181610302334 96.12351640723357 0.2743716079642046
1652454412.3906114 -0.4075181610302334 96.12351640723357 0.2743716079642046
1652454413.1904824 0.581585914868695 95.71593117392416 0.2674908706162184
1652454413.5904908 1.0714077991694526 95.38130156736149 0.26673666163970833
1652454413.9904926 1.5413355009489533 95.00151746371985 0.26929159454049045
1652454414.3904946 2.01405268825114 94.59660248308735 0.27208444495494416
1652454414.7904904 2.447912188889003 94.18284360778645 0.2751069747624613
1652454415.1903903 2.864786149021013 93.74033609479864 0.27756835824320103
1652454415.5903692 3.2846565714458658 93.27788020775631 0.2756736625473183
1652454415.9905427 3.6908859101536833 92.78281397483524 0.27098916065846274
1652454416.390488 4.087422010821366 92.29167974714552 0.259464276733319
1652454416.790359 4.468255370699996 91.78426770009338 0.24113197357876734
1652454417.1903744 4.840321816770922 91.29350268858008 0.21965444906615328
1652454417.5904117 5.159241413550454 90.84127007427894 0.2013173926619572
1652454417.9904032 5.468104382196615 90.42033723886576 0.18830566429316006
1652454418.3904574 5.803006704761075 89.99040843352356 0.1776202262527782
1652454418.790394 6.140198069079631 89.58979115410013 0.1708310984159296
1652454419.1903856 6.462055356542695 89.21173466971712 0.16588216894532481
1652454419.1903856 6.462055356542695 89.21173466971712 0.16588216894532481
1652454419.5902984 6.797167807773621 88.83333706121299 0.16803359401148077
1652454419.9902837 7.163383563285538 88.44218268978669 0.17569620601858413
1652454420.7902389 7.99791370583789 87.59460781915273 0.18432928871513912
1652454421.1902936 8.406382842048156 87.17977924183488 0.18910992613848268
1652454421.1902936 8.406382842048156 87.17977924183488 0.18910992613848268
1652454421.5904074 8.827344462627229 86.71983891773137 0.19420820394931446
1652454421.990435 9.21486216965987 86.2418897070872 0.1996455405885897
1652454422.3903792 9.549103710197784 85.75146522830522 0.20380144721024854
1652454422.7916265 9.77836977249018 85.30825437536042 0.20660414717924958
1652454423.1966584 9.92608705784458 84.86602982106201 0.2055113105412879
1652454423.5904207 10.010339741956884 84.46581905389885 0.20663046756547904
1652454424.3929472 9.93852266851662 83.60458392641969 0.19579485583087677
1652454424.7917602 9.790580255917837 83.22215406349501 0.18565688711850933
1652454425.1917508 9.438366297128159 82.89467810156926 0.17763759592970274
1652454425.591724 8.97805867863699 82.63471327729046 0.1668587771551091
1652454425.9917624 8.394953767595519 82.33472404970554 0.14911915797820013
1652454425.9917624 8.394953767595519 82.33472404970554 0.14911915797820013
1652454426.3919294 7.805350020267448 82.09329759497292 0.12626794352204407
1652454427.1912847 6.594948191605625 81.67770569864793 0.038532547833312746
1652454428.391289 4.781509665931293 81.27448876286253 -0.045586860904718224
1652454428.791322 4.206242014061199 81.18145769050905 -0.06827811847585298
1652454429.1912723 3.6934043327329884 81.08050026959826 -0.0842934079769095
1652454430.39132 2.0516986601165526 80.81352541540768 -0.06540739667803862
1652454430.39132 2.0516986601165526 80.81352541540768 -0.06540739667803862
1652454430.79119 1.5610378644976952 80.69119235474179 -0.0586064659597496
1652454431.1911628 1.1043645972832434 80.55305262431887 -0.0559654002648313
1652454431.591133 0.8545446817423104 80.45010417838738 -0.05594229326294915
1652454431.9911196 0.676212762622394 80.34960719053193 -0.055839672669951476
1652454432.3911185 0.5310034270823842 80.22496828478589 -0.05130247451855276
1652454432.791116 0.40327690918459147 80.10705157776809 -0.04957735086401254
1652454433.19118 0.2917160689034521 79.92674595634224 -0.04679698563623271
1652454433.5913002 0.15448386201051922 79.43858960585253 -0.04400469177436048
1652454434.3917787 -0.1855843031875185 78.28413432522962 -0.034727688462530465
1652454434.7918088 -0.310605086236737 77.7112542088956 -0.033144698703728034
1652454435.1918178 -0.40856338307609813 77.1448940842389 -0.0305324415014752
1652454435.1918178 -0.40856338307609813 77.1448940842389 -0.0305324415014752
1652454435.9915411 -0.5583492518269996 75.97109779502951 -0.01926994731355187
1652454437.1915815 -0.7365222687583162 74.22610784418347 0.00395855674766961
1652454437.5915453 -0.8351598229913783 73.665505858433 0.017613251690823145
1652454437.9915068 -0.9676932975945711 73.0877791618862 0.031770377591853236
1652454438.3914986 -1.1260273805322936 72.5222964193554 0.04567267302883336
1652454438.7915254 -1.2994311893934694 71.96188855028848 0.056692643604555275
1652454439.1913667 -1.4871444078323381 71.3867741481487 0.06462820459661996
1652454439.5912485 -1.6492353904057129 70.836471200666 0.06979672017732846
1652454439.9913032 -1.8240864385377138 70.3216383518564 0.08380322242745895
1652454440.3914196 -2.0126728820626703 69.76524894608974 0.10368090698653402
1652454440.791399 -2.2341589839113936 69.19151682505012 0.1414639116367774
1652454441.1912675 -2.433825655182293 68.66474505955209 0.17259978964126382
1652454441.9912949 -2.9100039867953154 67.49056216529775 0.2056919783089193
1652454442.3913085 -3.127565608087826 66.93166918993734 0.210422522834479
1652454442.7912877 -3.3451317523559942 66.37583105796716 0.21325758821542484
1652454443.1911526 -3.5648217027725173 65.80121307497393 0.21361620534118486
1652454443.591126 -3.789003322275844 65.24652169222445 0.21540275600451478
1652454443.9911077 -4.028628644093088 64.68672718171025 0.21792718878436365
1652454444.391001 -4.2733793226450105 64.15109420481114 0.2242366592805066
1652454444.391001 -4.2733793226450105 64.15109420481114 0.2242366592805066
1652454444.7908707 -4.523422989027357 63.59338570867619 0.22935618448866815
1652454445.190962 -4.7871516995499865 63.04075975103937 0.23353097009089552
1652454445.5909324 -5.041157677709276 62.50527826425696 0.23596619841352767
1652454445.9909267 -5.288318534495223 61.987700133526836 0.24208186307404678
1652454446.3910103 -5.561252462523764 61.4385702689771 0.2484063513860009
1652454446.7910204 -5.83678860550029 60.894637447546465 0.25316902187309687
1652454447.1910477 -6.110939979152443 60.36602546870411 0.2571523333770253
1652454447.9910173 -6.650535694448648 59.306092324399856 0.2679423676829299
1652454448.3910172 -6.918397005106265 58.793952839649364 0.27476398100183486
1652454448.7910125 -7.199011493333034 58.278607198159285 0.2825405850276946
1652454449.1910157 -7.494744036660167 57.761700346692884 0.2933124977434837
1652454449.1910157 -7.494744036660167 57.761700346692884 0.2933124977434837
1652454449.5911725 -7.777050352065547 57.253515971070165 0.3041754446806528
1652454450.3912404 -8.388161591258632 56.22922346060084 0.3399024720879996
1652454451.1912591 -8.90478687477635 55.195711581853516 0.3592375963477046
1652454451.9912996 -9.307003803354547 54.14276272942393 0.37011215930604585
1652454452.3925474 -9.448092041056144 53.623132103836866 0.37342276072611574
