1652499121.4521744 -2.816236154581285 -43.039389584408646 0.3598254404752077
1652499121.8520973 -2.8162631434941496 -43.039418125133885 0.3597965729162755
1652499122.2521152 -2.81625613499402 -43.03952891710342 0.3597853020151904
1652499122.6521373 -2.8163227783814753 -43.03963428913884 0.3598458105606855
1652499123.052274 -2.8163731672039005 -43.03976102739699 0.35987533668417476
1652499123.4514341 -2.8162655957029963 -43.03951785776905 0.359835328643383
1652499123.8513205 -2.8163873255792833 -43.0403716845246 0.359844538342086
1652499124.2513306 -2.8163138889669606 -43.04053606142583 0.3599372930288989
1652499125.051329 -2.816400383645573 -43.0405712394727 0.3598475620528542
1652499125.4513097 -2.8163917090381463 -43.04082259365811 0.35981849829141876
1652499125.8514273 -2.8163347863812844 -43.04029510146346 0.3598262640376435
1652499126.2513597 -2.8163500572280333 -43.040134179189884 0.35977549499086336
1652499126.651221 -2.8163280874012506 -43.039995577182005 0.3597438539751658
1652499127.0526102 -2.816340205603391 -43.040014752660255 0.35975282409003173
1652499127.4525993 -2.816402591070624 -43.0399409082941 0.3597061923973363
1652499127.4525993 -2.816402591070624 -43.0399409082941 0.3597061923973363
1652499127.852768 -2.8164071767626706 -43.040301512850704 0.35969158953502395
1652499128.251715 -2.8163705176738025 -43.04036385099828 0.3597144369579842
1652499128.654526 -2.8164051945513204 -43.04026084471254 0.3597765798667872
1652499129.053196 -2.8163514470797186 -43.040414824566035 0.35976022503336796
1652499129.45322 -2.8162335070702635 -43.039982080719554 0.3597010253419405
1652499129.8519273 -2.81622302663623 -43.04041337647098 0.3597398262670381
1652499130.2518992 -2.8162283932601966 -43.04014258764611 0.3597219983207169
1652499130.6518776 -2.8163150358337394 -43.040688483104155 0.3596778304165495
1652499131.0518606 -2.81632647960762 -43.04010589680117 0.35974680338706366
1652499131.451896 -2.8164408728136068 -43.040048634663194 0.3597071101964908
1652499132.2519016 -2.81637075245953 -43.039360972803074 0.359796832785829
1652499132.6520858 -2.816409903839007 -43.039409365693125 0.35969567581849826
1652499133.0521047 -2.816460880536276 -43.03927532586972 0.3597460553016883
1652499133.4520776 -2.816406308955968 -43.03949968833654 0.3597086156690507
1652499133.8520935 -2.816430753198746 -43.03916770028765 0.35966929569467504
1652499134.2521293 -2.8165029380171838 -43.03979351477636 0.35976867806792706
1652499134.652107 -2.8165302210768193 -43.04027268831325 0.35977877829694194
1652499134.652107 -2.8165302210768193 -43.04027268831325 0.35977877829694194
1652499135.051991 -2.8164547522700145 -43.04018810592243 0.35969812069468243
1652499135.8520007 -2.816289087881838 -43.03992875776984 0.35965049760523676
1652499136.2521086 -2.8163075009718717 -43.04076010865611 0.3595605846079727
1652499136.6520956 -2.816347302534764 -43.040818423012425 0.35946627928831015
1652499137.0521 -2.8164058001309837 -43.04124546588243 0.35947392772644116
1652499137.4521346 -2.8163852297048977 -43.04134616180724 0.35957769472100454
1652499137.8522165 -2.8162891726508 -43.04107147311728 0.3596214081768211
1652499138.2522173 -2.816255468345088 -43.04102332979278 0.35965011014031945
1652499138.6522093 -2.8161822756546413 -43.04110844569581 0.35963181624223
1652499139.0522254 -2.8161084786613384 -43.04056168696865 0.35967869395915353
1652499139.452265 -2.816195348779877 -43.04070637519136 0.3596731735719036
1652499139.452265 -2.816195348779877 -43.04070637519136 0.3596731735719036
1652499139.8524384 -2.8162224356560963 -43.040393967766434 0.35966855579849955
1652499140.251369 -2.8162089815674207 -43.040385506567326 0.3595872111527067
1652499140.6525888 -2.8161931109176166 -43.04052689611571 0.3595816070723868
1652499141.0513554 -2.8161479008422305 -43.039898200674436 0.35961562828608157
1652499141.4525821 -2.8162092698480996 -43.040555941552206 0.3595771170347365
1652499141.8525727 -2.8161731122917177 -43.04039765941613 0.3596130272860434
1652499142.252566 -2.816143044868008 -43.040519239238705 0.35969054946364515
1652499142.651817 -2.8160290836894575 -43.04012652250127 0.35960730583600614
1652499143.0518508 -2.8160145652018103 -43.04056877718074 0.35956560498317164
1652499143.4518476 -2.8161327688632416 -43.04056972790917 0.35972550278330373
1652499143.8537107 -2.8161749462984265 -43.04043606600502 0.35979958478156837
1652499144.2523623 -2.8162236848686106 -43.04071398710537 0.3597396208349966
1652499144.6523561 -2.816140883983257 -43.04028904975762 0.3596703468057391
1652499144.6523561 -2.816140883983257 -43.04028904975762 0.3596703468057391
1652499145.0523384 -2.816094999528814 -43.03996134653684 0.35966894804385635
1652499145.4524693 -2.816074452087658 -43.04065389302748 0.3597045005112351
1652499145.8526235 -2.816032422616042 -43.04009453612472 0.35981088439973724
1652499146.2526467 -2.8160923328060328 -43.04022152416888 0.35973612588064485
1652499146.6514666 -2.8160812682014154 -43.04035335408227 0.3596376657362373
1652499147.0515893 -2.8160329406179825 -43.04050717130414 0.35959828631750057
1652499147.8515763 -2.816069113682902 -43.04004306125227 0.35968722191938773
1652499148.652814 -2.816075054522916 -43.04039328976868 0.35970436274315293
1652499149.0515664 -2.8160323371151117 -43.04045643742596 0.3596777762429388
1652499149.45156 -2.8160078390369914 -43.04052823846107 0.35967226563440535
1652499149.8516164 -2.816075280116941 -43.040874097662034 0.35973071470827855
1652499150.251602 -2.816128928658101 -43.04073933402139 0.359846782523852
1652499150.6515827 -2.8161344423818098 -43.040989640735226 0.35983193955297127
1652499151.0515962 -2.816047254942481 -43.04100614805351 0.35973857129499215
1652499151.4516053 -2.8160547180436626 -43.040134356676425 0.35966833479566956
1652499151.4516053 -2.8160547180436626 -43.040134356676425 0.35966833479566956
1652499151.8530216 -2.8160160358502497 -43.039636538100964 0.3595801949907216
1652499152.2519486 -2.816118839798863 -43.040201186141225 0.3595639568403005
1652499152.6520207 -2.816124162172001 -43.039919337295544 0.35967064584157565
1652499153.052107 -2.816134090945036 -43.040019198129926 0.35963559005923085
1652499153.4521391 -2.816142764871759 -43.03977819937434 0.3596247848099992
1652499153.8521008 -2.8161640640302847 -43.039605638297225 0.3597202012413463
1652499154.652109 -2.816053041128176 -43.0393823338663 0.359728439530639
1652499155.4521086 -2.816196418714842 -43.039633170859304 0.35976988460910153
1652499155.852219 -2.816137807456133 -43.03955716050865 0.3597306186606693
1652499156.2524147 -2.8161036013597753 -43.03972962028061 0.3597482891816727
1652499156.6523256 -2.8161599613119592 -43.03962594881552 0.35972036812177055
1652499156.6523256 -2.8161599613119592 -43.03962594881552 0.35972036812177055
1652499157.452325 -2.8161322477410966 -43.039617463570515 0.3597534657526319
1652499157.8523183 -2.8161050589154737 -43.03965850522129 0.3598519885179253
1652499158.2523558 -2.8161992030413847 -43.03988325396028 0.35980312067282516
1652499158.6524463 -2.8162034444192274 -43.040705579298695 0.3597050011185906
1652499159.4528894 -2.8162337333632093 -43.04133452613323 0.3597576609172436
1652499159.8516183 -2.8161920123623054 -43.04092518677538 0.35989848011464126
1652499160.251621 -2.816209957450278 -43.04020326305234 0.35980105113997396
1652499160.6515753 -2.816311396150276 -43.04049796476096 0.3597189075375021
1652499161.0528865 -2.8163392770530007 -43.0404259874718 0.35971900064789536
1652499161.4526963 -2.816234631132505 -43.0406841195865 0.35963034428083507
1652499161.852556 -2.8163090673068707 -43.040908566120706 0.35977176301744623
1652499162.2524984 -2.816295207606484 -43.040727881847516 0.3599151779351854
1652499162.6524642 -2.8163431570501003 -43.040765446128034 0.359841698930015
1652499163.0526528 -2.8164050439514825 -43.04061133028666 0.35981065099298404
1652499163.4527526 -2.81637981685491 -43.04041257729217 0.35980695027628845
1652499163.8529499 -2.816421371618062 -43.040259038276275 0.3598659669763337
1652499164.2520385 -2.8165661906402444 -43.04108174410446 0.35982075172852174
1652499164.6520889 -2.8164532878970685 -43.040777907749856 0.3598865599558007
1652499165.052126 -2.8163277365988777 -43.04014585904607 0.3597518773810294
1652499165.4520984 -2.81626406187211 -43.040511303929264 0.3596925810002297
1652499165.8521109 -2.816322060907653 -43.04056756143805 0.3597018849299165
1652499166.2520385 -2.816361215217864 -43.04028394589119 0.3597550771581689
1652499166.6521049 -2.8164613789254607 -43.04051764152343 0.3597875529477289
1652499167.0520842 -2.8164162188943322 -43.04018029488712 0.35973528182136605
1652499167.4521096 -2.8164446010140005 -43.03959720039025 0.35973247364646804
1652499168.2521262 -2.816304990391351 -43.0397359864159 0.3598080467488831
1652499168.2521262 -2.816304990391351 -43.0397359864159 0.3598080467488831
1652499168.6519778 -2.816370465812537 -43.03950185256618 0.3597302848897641
1652499169.4520848 -2.8163007567077822 -43.03985805648908 0.3596248584011177
1652499169.8521194 -2.8162542901465555 -43.040382717437325 0.35956621867089456
1652499170.2522106 -2.8161966610380538 -43.03987553432737 0.35954774457325284
1652499170.2522106 -2.8161966610380538 -43.03987553432737 0.35954774457325284
1652499170.6524494 -2.8161784879306366 -43.040106250319724 0.3596641049067671
1652499171.0520246 -2.816260070107289 -43.03990034423088 0.3596800427833727
1652499171.452099 -2.8162992585541433 -43.04050962382592 0.3596180913251653
1652499172.2521248 -2.8164686276141766 -43.04060766243378 0.35975173628289636
1652499172.6521363 -2.8165558696622948 -43.040892897788495 0.35971420228088036
1652499173.0533404 -2.81639120617292 -43.04076302719289 0.3597550195150175
1652499173.4534416 -2.8163383361059617 -43.04025596327458 0.359685077799611
1652499173.8524044 -2.8164256616529273 -43.04050099020173 0.3596614307726105
1652499174.2523406 -2.816441360432568 -43.04042961743954 0.3596845480205455
1652499174.6535962 -2.816372362193194 -43.04047504899436 0.3595853365176598
1652499175.0535703 -2.8162824300223224 -43.04017980427631 0.3596424255851818
1652499175.4535947 -2.8162606967352075 -43.04048062834987 0.3597918759261792
1652499175.4535947 -2.8162606967352075 -43.04048062834987 0.3597918759261792
1652499175.8534505 -2.81622153711576 -43.04045287260968 0.3598220985663617
1652499176.252087 -2.8162842623871653 -43.0402700662342 0.3596201524213353
1652499177.0522442 -2.8162509438920087 -43.04064287746344 0.3596408455062572
1652499178.251508 -2.8161905820084914 -43.04016656476013 0.35954745447070136
1652499178.6517289 -2.8162070954731724 -43.04034630444016 0.3594961359093229
1652499179.0518463 -2.8162152555878492 -43.04034649496526 0.35940945735311836
1652499179.451839 -2.8162623364284425 -43.0401528844922 0.35942344837029433
1652499179.8519368 -2.816272423511133 -43.040473067403724 0.35940580087238877
1652499179.8519368 -2.816272423511133 -43.040473067403724 0.35940580087238877
1652499180.2520516 -2.8162120800338086 -43.04024607924742 0.3594580574356868
1652499180.652032 -2.8162779481869453 -43.04040185118416 0.3594898644586011
1652499181.0520422 -2.816276222834619 -43.04085280881421 0.35950580611035066
1652499181.4520488 -2.816168360354012 -43.040428803423204 0.35952118139270006
1652499181.8520453 -2.816253883474797 -43.040573658890644 0.359506179963832
1652499182.2520783 -2.8161244708626776 -43.03954011439122 0.35947651547147336
1652499182.6521964 -2.8161525965454555 -43.03962753498824 0.3595883209694326
1652499183.05207 -2.8160314519250003 -43.03940518722419 0.3595613475815928
1652499184.2520342 -2.816134968922704 -43.03998073223565 0.3594348139424243
1652499184.6520364 -2.8161645606698373 -43.04091033906005 0.3594920021654464
1652499185.052034 -2.8161970630875364 -43.04115803629867 0.35957805821234523
1652499185.8520408 -2.8162015673974707 -43.04095707176436 0.3596061863019698
1652499186.2520297 -2.8161662795198326 -43.04071868898708 0.3596265314406217
1652499186.6520414 -2.8161322923946295 -43.040220002628935 0.35960543126977706
1652499187.452163 -2.8161413097053356 -43.0398182201709 0.3596440791813988
1652499187.8522177 -2.8160723608036586 -43.03953233105614 0.35961660489634995
1652499188.2521625 -2.816080010484107 -43.03943133140215 0.359650305981951
1652499188.6520214 -2.8161830457252353 -43.04018628460179 0.35964513427991557
1652499189.0520332 -2.8160357272566174 -43.040176176002134 0.35960975442132254
1652499190.2520373 -2.8160812935836685 -43.04033298756257 0.35967609792208177
1652499190.2520373 -2.8160812935836685 -43.04033298756257 0.35967609792208177
1652499190.6509142 -2.8161540341302973 -43.04045889801945 0.35962978003922996
1652499191.0522008 -2.816175470678943 -43.04082803017699 0.359661985390843
1652499191.4521782 -2.8162127679985165 -43.04136692950726 0.3596421113859047
1652499191.8509612 -2.8161250701714855 -43.04099168138959 0.35966128862169816
1652499192.252297 -2.816241902921942 -43.04133485815262 0.3596540505812521
1652499192.6523228 -2.816105224805808 -43.041093088235534 0.3596743122411661
1652499193.4524715 -2.816168017891837 -43.04082827429097 0.35969110429128653
1652499193.8523228 -2.81620598998155 -43.04046430748931 0.359774779564362
1652499194.2510808 -2.8162136384753413 -43.04096514765997 0.3597444156429342
1652499194.2510808 -2.8162136384753413 -43.04096514765997 0.3597444156429342
1652499194.652264 -2.8161475609398234 -43.040619391950614 0.35966294220124245
1652499195.0520267 -2.816180846926447 -43.04083755785998 0.35967899841241385
1652499195.4509296 -2.816220054681182 -43.04084529098905 0.35964589982238765
1652499195.8521967 -2.816232943329237 -43.04082435462961 0.35965182763483494
1652499196.252165 -2.8161817490060876 -43.041017379027906 0.35974009255197614
1652499196.6510308 -2.8162190379922696 -43.04097503063813 0.359718766015093
1652499197.0511987 -2.8161213131704543 -43.04028049612559 0.359647916600315
1652499197.452347 -2.816196849248785 -43.040635914560376 0.3596983224499884
1652499197.852423 -2.8162148724220732 -43.040755712562934 0.35961264427055833
1652499198.2524247 -2.81622186060872 -43.0406445992271 0.35966251529527254
1652499198.6524403 -2.816246780697598 -43.040392471085994 0.3596570437898631
1652499199.052607 -2.816175265827182 -43.039766459425735 0.35957594536177045
1652499199.4514935 -2.8161683027048277 -43.03898557431733 0.35953355045250945
1652499199.8522036 -2.816145720749327 -43.03940830901615 0.3594923605180191
1652499200.2522445 -2.816189753919883 -43.039624701679365 0.3596363996765764
1652499200.6509697 -2.816145254938916 -43.039567215304324 0.3596684030213448
1652499201.0509999 -2.8162123187312362 -43.039512993806916 0.35963548204847473
1652499201.4523475 -2.816196571310728 -43.03957324425288 0.35974432882786933
1652499201.851083 -2.8163958680284753 -43.03985891921847 0.35997571525282457
1652499202.651198 -2.816292461854472 -43.03991806289071 0.3597045877493004
1652499203.0524175 -2.8163824932147876 -43.04016294679 0.3596768780138019
1652499203.4524205 -2.8163493328891214 -43.040174990447774 0.3596945679584422
1652499203.8524005 -2.816257912527376 -43.03965984461453 0.3596942924279176
1652499204.2522955 -2.816291071495715 -43.03962703402193 0.35976311295882885
1652499204.2522955 -2.816291071495715 -43.03962703402193 0.35976311295882885
1652499205.052075 -2.816241490969361 -43.039180605931584 0.3596069971610573
1652499205.452084 -2.816295794828694 -43.039387935970844 0.3595559302913206
1652499205.85086 -2.8163479278659813 -43.039323441432686 0.359669869972635
1652499206.2520974 -2.816407367909295 -43.0398893972075 0.35983646888439774
1652499206.6508617 -2.8164280661624 -43.0396972917331 0.3598768673277521
1652499207.0509892 -2.8164023263973132 -43.03973972314242 0.3597979727056022
1652499207.8510792 -2.816475234615241 -43.04211980628757 0.3598361202166486
1652499208.651082 -2.816561502835174 -43.04226561541063 0.3597012536123897
1652499209.0510876 -2.8165966415751744 -43.04256394151908 0.35970443374272965
1652499209.0510876 -2.8165966415751744 -43.04256394151908 0.35970443374272965
1652499209.4509656 -2.816483897751236 -43.04221069196857 0.3596858545027461
1652499209.8510063 -2.816222502607001 -43.03979314861215 0.3596100539592088
1652499210.252319 -2.816283197412074 -43.04016040277293 0.3595596435915355
1652499210.6523488 -2.816341123138617 -43.04026742692136 0.35949081197584715
1652499211.0523467 -2.8163324864938994 -43.04018731994227 0.3595504133632835
1652499211.4523666 -2.8163723034679657 -43.0399242184654 0.3595421504434749
1652499211.8524148 -2.8164512424061634 -43.03966756437853 0.35965518367833327
1652499212.2524197 -2.8164691281270007 -43.04098884828844 0.35970479540914213
1652499212.6523945 -2.816463434919493 -43.040829212702455 0.3596641837916889
1652499213.0522828 -2.8164257588331263 -43.041052412746765 0.3596335141375093
1652499213.4523408 -2.816509016206621 -43.041027726565765 0.35953718672071
1652499213.8523088 -2.8164680990694912 -43.04087973748298 0.35957792125653554
1652499213.8523088 -2.8164680990694912 -43.04087973748298 0.35957792125653554
1652499214.2525284 -2.8163627635751363 -43.039954820913685 0.35955255819189
1652499214.6525676 -2.816370511343942 -43.03922240445555 0.35959116242454514
1652499215.0525403 -2.816307455393996 -43.03929636079512 0.3596296672538446
1652499215.4525719 -2.8162246597533986 -43.03943181413985 0.3596591925109823
1652499216.2525823 -2.816326131735682 -43.03942613691118 0.3595440749869541
1652499216.6526196 -2.8163148194877294 -43.03963717173117 0.3595634326759002
1652499217.052556 -2.8162270889331285 -43.03928216633734 0.35955907582098234
1652499217.4525697 -2.816236482628544 -43.03960212292975 0.3595739336941058
1652499217.852552 -2.8162429522610384 -43.040043417736825 0.35948279956100415
1652499218.652582 -2.81619939621233 -43.04019750574218 0.3593736709850977
1652499219.0539145 -2.816155834392884 -43.04001945112878 0.359435147435624
1652499219.4529073 -2.8161732736877645 -43.040368995343684 0.35944416008995944
1652499219.8528318 -2.816201771148783 -43.04031681612553 0.3594687987190893
1652499220.2526877 -2.8161960949628577 -43.039835753294554 0.35951558406916656
1652499220.6556265 -2.8162156735630717 -43.039823675550494 0.35960827269800305
1652499221.0543158 -2.816257399668478 -43.040471746329665 0.3596814124203339
1652499221.4542267 -2.816218650642431 -43.04027386106619 0.3596797438296783
1652499221.8531199 -2.8161083696875497 -43.04030059217214 0.35974288800103804
1652499222.2530327 -2.816120102605436 -43.04018935520795 0.3597704114095211
1652499222.6518264 -2.8160151588252513 -43.03966464229593 0.35982151607802554
1652499223.0518942 -2.8159337013506214 -43.04013190228504 0.35971023606822106
1652499223.4517167 -2.816031651317468 -43.04019689806681 0.359560487569005
1652499223.8517323 -2.815997578413887 -43.04001857894341 0.3595793014581246
1652499224.25297 -2.816104885666557 -43.039801133242385 0.3595755184135344
1652499224.6528292 -2.816043867630956 -43.03988550336743 0.35955113041737696
1652499225.0527904 -2.8160640092689646 -43.03965373571634 0.3595451492152064
1652499225.4527268 -2.816038186146038 -43.0402760215984 0.3596349668543236
1652499225.85267 -2.8160708823763527 -43.04044367357408 0.3597041027406929
1652499225.85267 -2.8160708823763527 -43.04044367357408 0.3597041027406929
1652499226.2525444 -2.8161604914510923 -43.040567964995404 0.35971940816653086
1652499227.0522823 -2.816172128805148 -43.0405175288205 0.3596675253823675
1652499227.4521074 -2.816052338652032 -43.04000459568885 0.359624588488456
1652499227.8522139 -2.8159971044111862 -43.0401981278141 0.3596837331796311
1652499228.2522216 -2.8160356222218663 -43.03994627095422 0.35953944176440666
1652499228.652329 -2.81609400515264 -43.04013293557107 0.35953086872838863
1652499229.0522032 -2.8161114293077794 -43.03991151957114 0.35950668744509745
1652499229.4522746 -2.8161085142619693 -43.04029242468463 0.35952001389821137
1652499229.852185 -2.8161493992267057 -43.040128637389024 0.35961145228551095
1652499230.2521753 -2.8161583585480914 -43.04033820410298 0.35964773995717464
1652499230.6521637 -2.8161344292498094 -43.04043944778545 0.35971222887190396
1652499230.6521637 -2.8161344292498094 -43.04043944778545 0.35971222887190396
1652499231.0525277 -2.816189724076887 -43.040495888050614 0.35972085563494627
1652499231.4524782 -2.8161390131151967 -43.04051988247097 0.3596451784798612
1652499231.852424 -2.8160893368821958 -43.040362524397246 0.35967634820785555
1652499233.0525975 -2.816072545712534 -43.04082192755284 0.3599984621927466
1652499233.0525975 -2.816072545712534 -43.04082192755284 0.3599984621927466
1652499233.4524405 -2.816104624839948 -43.04067919976228 0.3600372468573958
1652499233.8526378 -2.8160252416452076 -43.03963195855203 0.36005556472405226
1652499234.2525737 -2.816083763449239 -43.03947831286821 0.3599947216564283
1652499234.6525853 -2.816028707393847 -43.03933210978237 0.35993252468252823
1652499235.0526044 -2.8159071923738974 -43.03928049507062 0.3598649849820158
1652499235.4525747 -2.815920931668719 -43.03976030531369 0.35990488159302997
1652499235.8525424 -2.8159932330526765 -43.0397342404582 0.3600591085693155
1652499236.2525978 -2.81620606238654 -43.04008147473253 0.36001403602247595
1652499236.6525903 -2.816178832332271 -43.04017377451713 0.3599755115276842
1652499237.052542 -2.816143132532181 -43.04016776096655 0.35977566189484855
1652499237.452561 -2.816080188562346 -43.04022270390304 0.3596900780388561
1652499237.8525844 -2.8161127121822083 -43.04016979669575 0.35977024450803824
1652499237.8525844 -2.8161127121822083 -43.04016979669575 0.35977024450803824
1652499238.2527268 -2.816075131911623 -43.0409340976088 0.3597474677966049
1652499238.6530573 -2.8161591940580757 -43.04139907057191 0.3598130141969013
1652499239.05306 -2.8162786889043927 -43.041731032185325 0.35992758944835646
1652499239.4530497 -2.8162470582980017 -43.0413721405584 0.35994896294146983
1652499239.853038 -2.8162757796149864 -43.041499780835544 0.3600401151608586
1652499240.253039 -2.816306397202242 -43.04142810638617 0.35998264635106103
1652499240.6530282 -2.8163862774325708 -43.04053206137697 0.3598492597193528
1652499241.0530896 -2.816391315925303 -43.04100336062305 0.35977666063404395
1652499241.4530766 -2.816314590352975 -43.04055715688789 0.35980608715988643
1652499241.8530324 -2.8162096308717595 -43.04035392284951 0.3597637039560217
1652499242.2530668 -2.8163001767363878 -43.04063779804841 0.359862960839372
1652499242.653085 -2.816150583296585 -43.04015711079811 0.35979250777265853
1652499243.0532298 -2.8162184789494886 -43.04003257447764 0.3597725455049936
1652499243.0532298 -2.8162184789494886 -43.04003257447764 0.3597725455049936
1652499243.4532263 -2.8163440620302387 -43.04011519213384 0.35969609887777443
1652499243.853199 -2.816466407755478 -43.04009645148282 0.35978133918794836
1652499244.6531932 -2.8162998748886565 -43.03990683739924 0.3597905048305508
1652499245.0532324 -2.816205505234007 -43.039502251858096 0.35977489420410264
1652499245.0532324 -2.816205505234007 -43.039502251858096 0.35977489420410264
1652499245.8531127 -2.8162528256354826 -43.03954059892737 0.3596127087472237
1652499246.2530684 -2.816339922836526 -43.040176449958935 0.35959366907984586
1652499246.6530545 -2.8162887915078514 -43.039457301382264 0.35970481266873
1652499247.0530765 -2.816324865178482 -43.039946334178566 0.3596655621935197
1652499247.453063 -2.816378001676574 -43.03977265240558 0.35964586041713836
1652499247.8530526 -2.816423782374161 -43.03953844781972 0.3597306186606693
1652499248.2530975 -2.816371647089617 -43.03990381170425 0.3595907398473758
1652499248.6531198 -2.816320059151417 -43.04000777709918 0.35954620348479344
1652499249.0530968 -2.8162981587467706 -43.0398287295742 0.35955689132924334
1652499249.4530582 -2.8162866107022166 -43.0410115655003 0.359614813009597
1652499249.8530414 -2.816357236973551 -43.04087685755302 0.3595913815455331
1652499249.8530414 -2.816357236973551 -43.04087685755302 0.3595913815455331
1652499250.2532496 -2.8163453941350136 -43.04045721317443 0.35953234981207316
1652499250.653341 -2.816370210516298 -43.04142792994183 0.3595045478781058
1652499251.0533133 -2.816352932189409 -43.040686552681564 0.3596121437923184
1652499251.4533067 -2.816453411065479 -43.04076941392255 0.3597029598626698
1652499251.853312 -2.8164278303300683 -43.04071052547054 0.3597546022848873
1652499252.253302 -2.816444509001721 -43.040830519110884 0.359656057583108
1652499252.6533182 -2.816431504159211 -43.04088080697937 0.3597363825074984
1652499253.0532477 -2.8163789263631975 -43.04080364296154 0.35978785811007563
1652499253.4531777 -2.81634831003911 -43.04061591504238 0.3597063651838802
1652499253.8532062 -2.8163823925357225 -43.04023404061292 0.35956505102907954
1652499254.2532067 -2.816329837243026 -43.040157209383175 0.35957657292598116
1652499254.6532056 -2.816299402320153 -43.040179775112385 0.3595130854102869
1652499255.0532293 -2.816358647057172 -43.04056636225178 0.3595589999900215
1652499255.0532293 -2.816358647057172 -43.04056636225178 0.3595589999900215
1652499255.4532015 -2.816366820471402 -43.04021396426958 0.35969083864519685
1652499255.8531585 -2.8162930858647712 -43.04024926560363 0.3596416551829747
1652499256.2530515 -2.816239018948968 -43.039672013634345 0.35958535218897275
1652499256.653092 -2.8162865230383587 -43.03988956055777 0.35956416343193864
1652499257.0529711 -2.8162692869510493 -43.03943937937154 0.3596037486485188
1652499257.4529731 -2.816281410215272 -43.039500138848204 0.35943360404943386
1652499257.85298 -2.8163255351136742 -43.039707546166646 0.35945296122638853
1652499258.2529535 -2.816279554476567 -43.03999058922688 0.3595216585410636
1652499258.6530216 -2.8163798027105016 -43.039903934749276 0.35951218819087183
1652499259.0529742 -2.8162695501097317 -43.03993108366653 0.3595252211992517
1652499259.4529696 -2.8162444201181622 -43.03998283885392 0.3595249610004259
1652499259.8532257 -2.816308436671479 -43.04006881102631 0.3595290974080017
1652499260.253063 -2.8163493575701017 -43.03991596498137 0.3595102400733794
1652499260.6530497 -2.816274272625316 -43.040241913592865 0.35946956940470204
1652499261.0529556 -2.8162384800657976 -43.040234483608195 0.3594396903462093
1652499261.452955 -2.816272779813775 -43.040322864357485 0.35938829816640083
1652499261.8529615 -2.816182457915099 -43.04020843136256 0.3593981326088563
1652499262.2530634 -2.81630004532021 -43.04077068547846 0.35955254181337826
1652499262.6530917 -2.816342562071083 -43.04052807218458 0.3594699559114402
1652499263.053325 -2.8162870345407716 -43.0393993227373 0.35946121109126133
1652499263.45332 -2.816212401215683 -43.039815170672604 0.35945244067072113
1652499263.8533063 -2.8160022561920828 -43.03948819407847 0.3594509601540876
1652499264.2534614 -2.816011412989202 -43.0401988958588 0.3594799038989282
1652499264.2534614 -2.816011412989202 -43.0401988958588 0.3594799038989282
1652499264.6535761 -2.816212566595035 -43.040035605661494 0.3594563064941221
1652499265.0544775 -2.816210193813899 -43.03992670654459 0.3593145380508826
1652499265.4544084 -2.816134678920905 -43.0395404764439 0.3593532717142178
1652499265.8542855 -2.8161491408121755 -43.039657733614504 0.35959940584399774
1652499266.2529712 -2.8161496877469503 -43.03970759915849 0.3596242008857354
1652499266.6541955 -2.8160301359300672 -43.03997656846338 0.35955458970259435
1652499267.0561047 -2.8160751326056443 -43.03954356335863 0.3594501060951717
1652499267.4561965 -2.8160937330125626 -43.03967218960316 0.35950265458592534
1652499267.8549592 -2.816010562125305 -43.03937646827521 0.3595638060135188
1652499268.2536736 -2.8159470194030987 -43.03969205327879 0.35947361985085685
1652499268.6525376 -2.8159757410911075 -43.03928010407035 0.35937539885644115
1652499269.452404 -2.8159672542340175 -43.039721137721166 0.3594325628633253
1652499269.452404 -2.8159672542340175 -43.039721137721166 0.3594325628633253
1652499269.8539214 -2.816028524288649 -43.03979627833296 0.35955511998498446
1652499270.253335 -2.8160986555294465 -43.039560639714814 0.35962091812809716
1652499270.6533418 -2.8161282207150142 -43.03964930788452 0.3595722358236299
1652499271.053474 -2.8160348754400233 -43.04025655287392 0.35959213801440226
1652499271.453449 -2.8159334271664234 -43.04055319996393 0.35966633787648017
1652499271.8534703 -2.8161089131351535 -43.04068247722555 0.3596119769662385
1652499272.2534497 -2.8160328977660027 -43.04081784309138 0.35959884048381485
1652499272.653353 -2.816120036573 -43.0408213530108 0.35969576114517937
1652499273.0534065 -2.8161002215286794 -43.0411826589617 0.3597881536815633
1652499273.453316 -2.816192969117569 -43.041116220757104 0.3598167720595505
1652499273.8533063 -2.8161961847196912 -43.0409163147812 0.3597284231687938
1652499274.253299 -2.8160658223470563 -43.03942202350023 0.35967595469778146
1652499274.6533413 -2.8160094369041353 -43.03923474674774 0.3597420853810676
1652499275.0531719 -2.815978480636476 -43.03916631905225 0.3597780677631889
1652499275.4542823 -2.816097944739361 -43.0392592283642 0.35971728083386223
1652499275.8530893 -2.816076779437542 -43.03935081952124 0.3597160003143528
1652499276.2531023 -2.8161472018301112 -43.03988751749602 0.35970019099163986
1652499276.6530964 -2.8162224708496844 -43.04008320576634 0.35967883584067206
1652499277.0530925 -2.816223719340249 -43.04013341613752 0.3596569062836452
1652499277.453185 -2.81617913874932 -43.04040674816295 0.3596774425279452
1652499277.8531628 -2.8161421276090532 -43.04004863345823 0.3596480294053018
1652499278.2530417 -2.816294926175347 -43.040318896017524 0.3596896414396095
1652499278.6530476 -2.8162732243078916 -43.040049493205615 0.35971786150629337
1652499279.0530343 -2.816208440512069 -43.03999330012339 0.35975392809049833
1652499279.453044 -2.816224505439711 -43.03980300462269 0.3596142003798123
1652499279.453044 -2.816224505439711 -43.03980300462269 0.3596142003798123
1652499279.852926 -2.8162889385873435 -43.04001986280304 0.35954290102795683
1652499280.2528076 -2.816322516220374 -43.04007645553712 0.3597032140364448
1652499281.0528705 -2.816315079219849 -43.040388228591404 0.35962995671063025
1652499281.4528465 -2.816329965961051 -43.040117671613224 0.35950987637297005
1652499281.852852 -2.8163038413779447 -43.040610791115874 0.3594685914130131
1652499282.2528734 -2.816280786666129 -43.04034146564827 0.3594981674379576
1652499282.6528847 -2.8163156059543617 -43.04017837517227 0.35955371583206647
1652499283.052832 -2.816363498182497 -43.040194320819516 0.35966900221307396
1652499283.4528558 -2.8164005279921485 -43.04054231689993 0.35970984421557667
1652499283.8528612 -2.8163075688717916 -43.04011780659759 0.3596690119683981
1652499284.2528818 -2.816387421458012 -43.040082620233406 0.35965657258561906
1652499284.6529284 -2.816441533496662 -43.04037000653982 0.35962106999415333
1652499284.6529284 -2.816441533496662 -43.04037000653982 0.35962106999415333
1652499285.0530071 -2.816383762857473 -43.04050400937689 0.3596282490081941
1652499285.4531968 -2.816424674021903 -43.04062078623375 0.3597247324989258
1652499285.8532245 -2.8165367021064727 -43.040682996525156 0.35979777503014543
1652499286.2531939 -2.8165936858370877 -43.04115950687232 0.3598938786753612
1652499286.6532087 -2.816410265290863 -43.04036946377028 0.35993053979462225
1652499287.053167 -2.8164838965315737 -43.04071648682285 0.359801411309892
1652499287.453068 -2.8164424029869135 -43.04115112625831 0.35968310592366853
1652499287.8530369 -2.8164151395958656 -43.04124292402113 0.35970484968596306
1652499288.253054 -2.816344918224275 -43.04094800904271 0.35956826389801744
1652499288.6530457 -2.816404574332746 -43.04147576957227 0.35950699639373634
1652499289.0530863 -2.816390762879963 -43.04072512381916 0.3594973564478263
1652499289.4530957 -2.816404545010426 -43.041205531782296 0.3594654679282368
1652499290.2529635 -2.816281997636678 -43.041024078919875 0.3593528250930986
1652499290.6529715 -2.816311147368879 -43.04099223859712 0.35933699974810646
1652499291.053214 -2.8163177927397527 -43.04104191460978 0.3593367393040731
1652499291.4532018 -2.8163234024771615 -43.04093048996291 0.35943469155335966
1652499291.8532045 -2.8163838302681583 -43.040494663361216 0.35954690414515056
1652499292.2533321 -2.816302446728756 -43.040018775095085 0.35956727919043935
1652499292.6532023 -2.816378892947966 -43.03998341527319 0.3596022418553184
1652499293.053174 -2.816348024575051 -43.04048703623003 0.35954072613979504
1652499293.4531941 -2.8163159756225813 -43.040028380751636 0.3595111573732001
1652499293.8530748 -2.8163440428134794 -43.04018753168968 0.3594346166334231
1652499294.2530532 -2.8164805273112044 -43.04049898519413 0.3594718206873707
1652499294.2530532 -2.8164805273112044 -43.04049898519413 0.3594718206873707
1652499294.6532102 -2.8164588322400284 -43.04080037938515 0.3595528754096203
1652499295.053606 -2.8163777433482875 -43.040495027694504 0.35955096721747076
1652499295.4535587 -2.816411725206139 -43.04073418636186 0.35944800551158196
1652499296.253562 -2.8163416798732612 -43.0400165305708 0.35952868043311814
1652499296.6536045 -2.816338356754429 -43.03998649808844 0.35955077688165116
1652499297.053563 -2.8163277099664956 -43.03990680000178 0.35957719645841885
1652499297.4535985 -2.8163169324935917 -43.039887361239 0.35958921868994154
1652499297.853565 -2.8163272993744286 -43.040087296128284 0.3595678630179514
1652499298.253544 -2.8163346223697223 -43.0398464196164 0.3595529951219623
1652499298.6535895 -2.816304506201604 -43.04000874385055 0.35955229802401506
1652499299.0535436 -2.8163220925208114 -43.040287882063346 0.3595905235345064
1652499299.4535432 -2.8162019158452485 -43.03993509024511 0.35957533176200673
1652499299.4535432 -2.8162019158452485 -43.03993509024511 0.35957533176200673
1652499299.8537214 -2.816232775857165 -43.0400539178497 0.3595052296100733
1652499300.253667 -2.816288478672287 -43.040241114218034 0.3594539943877862
1652499300.6536999 -2.8161580267199344 -43.039669018517706 0.35937873329209363
1652499301.0537329 -2.8161918773060712 -43.03907607734971 0.3593121937775804
1652499301.4537172 -2.816127766955346 -43.03931032040732 0.3593662520614914
1652499302.2538636 -2.8161362110343813 -43.03942899596482 0.35948981864646706
1652499302.6538377 -2.816176431305963 -43.04016820956235 0.35946145345068264
1652499303.0538535 -2.8161967763284976 -43.04012633572256 0.35951597092776844
1652499303.453828 -2.8162128573362564 -43.04045511710425 0.35962165390412104
1652499303.8538055 -2.8162045584458455 -43.040255647082745 0.35957122900519295
1652499304.2538474 -2.8162777926096796 -43.040461732852734 0.35952083778444943
1652499304.2538474 -2.8162777926096796 -43.040461732852734 0.35952083778444943
1652499304.6536887 -2.8162100932365277 -43.04020533827679 0.3595518511109972
1652499305.4536786 -2.816205094847584 -43.04033648223458 0.35948792640981964
1652499305.8536801 -2.8161254887169127 -43.04027167387669 0.3594717676912705
1652499306.253658 -2.8161526009528957 -43.040250208751544 0.3594296161003538
1652499306.6536086 -2.816171367119701 -43.04002855204844 0.35942371889858077
1652499307.0540867 -2.8162030568145107 -43.0406373938077 0.3594728212574503
1652499307.4540718 -2.816272601117491 -43.04066256119993 0.35951437945571546
1652499307.8540552 -2.816193128496939 -43.04023661332011 0.3595399121703594
1652499308.25411 -2.816178797355127 -43.040588315549584 0.35953944517161
1652499308.65403 -2.8161916648123895 -43.04087836667171 0.3595080044401018
1652499309.054037 -2.81611450908206 -43.04007273560534 0.3593786818685792
1652499309.054037 -2.81611450908206 -43.04007273560534 0.3593786818685792
1652499309.4542737 -2.816092670068233 -43.04016441607867 0.35937198320384073
1652499309.8534436 -2.8160875911281735 -43.039723596540156 0.35939540208852305
1652499310.6535945 -2.8160911775305397 -43.040193490198384 0.35950225063109487
1652499311.455041 -2.816065838384802 -43.04002413384827 0.3595793848648834
1652499311.8549674 -2.816100138779643 -43.04011253180989 0.3595259617307226
1652499312.2537403 -2.816032959620951 -43.04021689416291 0.3595559141550431
1652499312.6537516 -2.8160041560598477 -43.040378549026265 0.3596249662218009
1652499313.056195 -2.8160501210386375 -43.040064096779616 0.35971718433466066
1652499313.4550228 -2.8160126229946703 -43.03934570412609 0.359631271833888
1652499313.8550923 -2.8160344544106533 -43.038973740955136 0.35959906764546684
1652499314.2538211 -2.8160326523706454 -43.0394650423823 0.3595848715198382
1652499315.053719 -2.8160142904458905 -43.03891460565412 0.35963784207288474
1652499315.8536637 -2.8161859182218385 -43.04012641777165 0.3595911371031588
1652499316.2537374 -2.816242968877705 -43.04058325608645 0.3596423765273868
1652499316.2537374 -2.816242968877705 -43.04058325608645 0.3596423765273868
1652499316.6535425 -2.8162809160342097 -43.0405302205271 0.35969545658101826
1652499317.0534153 -2.8162402391969685 -43.040261368198635 0.35980629211124093
1652499317.4534206 -2.8161557782259257 -43.04052706189834 0.3598538330356527
1652499318.2535505 -2.816204250094487 -43.04065563096237 0.35967952824663146
1652499318.6535347 -2.8161692993057414 -43.04056767754422 0.35968487200471355
1652499319.0534096 -2.816184904370627 -43.040546750344326 0.35966845284041005
1652499319.4532902 -2.816207370007621 -43.04049577545593 0.35959625478183044
1652499319.8532903 -2.8161681439320767 -43.04022833461972 0.3595269624610126
1652499320.2533407 -2.816198282878378 -43.040346518769255 0.35953947518687474
1652499320.653332 -2.816286347175109 -43.04053021061187 0.35965414865128476
1652499321.053281 -2.8163124997108784 -43.04063934795998 0.3595812535859887
1652499321.053281 -2.8163124997108784 -43.04063934795998 0.3595812535859887
1652499321.4546685 -2.8162998082832797 -43.040580284314835 0.3595529887711676
1652499321.854181 -2.8163029625064193 -43.04037945337564 0.35957569914656745
1652499322.2541971 -2.816330044400905 -43.040347148218075 0.3596316545686964
1652499322.6541927 -2.8162867912174105 -43.04005967982417 0.3595919909911459
1652499323.0541742 -2.816358190365741 -43.04016508636258 0.3596111921818844
1652499323.4541662 -2.816382303472526 -43.04025343170053 0.3596437701285348
1652499324.2540646 -2.816480835675625 -43.04031693310227 0.35966805523826506
1652499324.6540437 -2.8164943836144642 -43.04060697381021 0.35963255249953613
1652499325.054037 -2.816416673372131 -43.04087206226537 0.3596997310939536
1652499325.4539137 -2.816343715926951 -43.04054570589383 0.3597491206255829
1652499325.8539188 -2.8163644220354924 -43.040934780549364 0.3597991007904344
1652499326.2539756 -2.8163745727759433 -43.04065409944199 0.3597283687227913
1652499326.2539756 -2.8163745727759433 -43.04065409944199 0.3597283687227913
1652499326.653929 -2.816434406880343 -43.040510121830145 0.3596994362224323
1652499327.0537891 -2.816459823886566 -43.040929670706866 0.3596636636686499
1652499327.4535809 -2.8164080947989873 -43.040782468255316 0.3596949170975194
1652499327.8536057 -2.816502140215691 -43.04102640971713 0.35974846912440683
1652499328.2534714 -2.816501040237203 -43.04094734414395 0.35962455373345675
1652499328.6535678 -2.8165172401672987 -43.041558071356164 0.35956937167110764
1652499329.05358 -2.8163736580566225 -43.04022507232023 0.35950740779517404
1652499329.4535697 -2.816330626673419 -43.04041830478242 0.35950696066585036
1652499329.8535707 -2.816362130489583 -43.040225300145465 0.35957038502191574
1652499330.253701 -2.8163264672998256 -43.04016796610914 0.3595150335398575
1652499330.6536627 -2.8162846214011874 -43.04043120026941 0.3595232963180276
1652499331.0537271 -2.8163008855765694 -43.04037884183286 0.35966508648768
1652499331.4537265 -2.816363587737184 -43.04045509411584 0.35964340701844216
1652499331.853714 -2.8164378676509267 -43.04079128291711 0.35960628950149837
1652499332.2537436 -2.81634018848871 -43.04064744396702 0.3595948806134114
1652499332.6536987 -2.8164898852076825 -43.04110890898393 0.35956629579583915
1652499333.053676 -2.816591950161799 -43.04110185632763 0.3596109902338753
1652499333.4536655 -2.8165030097352384 -43.04037564228196 0.35966449273663414
1652499333.8535578 -2.8163474777723216 -43.03982498147094 0.359619190802844
1652499334.2535243 -2.8162795425832363 -43.03998003113455 0.3595859063500921
1652499334.653554 -2.8163064385167766 -43.04004865060543 0.3595587261707786
1652499335.0535865 -2.816283007779103 -43.03993960134349 0.3595997932850728
1652499335.4535706 -2.816316846875285 -43.040197339473636 0.3596730652570276
1652499335.4535706 -2.816316846875285 -43.040197339473636 0.3596730652570276
1652499335.8537598 -2.816339858072837 -43.03989530455782 0.35965837336640066
1652499336.2541974 -2.8163266786398866 -43.03975614991295 0.3596240242251691
1652499336.6542985 -2.8162980640395325 -43.039578255132156 0.35954938896790967
1652499337.054325 -2.816268235723451 -43.03962046092297 0.359529407623459
1652499337.4543297 -2.816192936950543 -43.039445065945216 0.3595211348761974
1652499337.8542967 -2.8162360887389677 -43.039481964206416 0.35956480686632325
1652499338.2543077 -2.816249277240438 -43.03993255171482 0.3595082919549633
1652499338.6544251 -2.8163007924064107 -43.03988973065287 0.35943211544856174
1652499339.0544186 -2.816264438490473 -43.03953130117869 0.3594352084982164
1652499339.4544935 -2.81620574811378 -43.04005591842053 0.3594774655720117
1652499339.8544211 -2.8163198126720976 -43.04040868566169 0.35954344485144907
1652499340.254401 -2.8162351956403864 -43.03989374557713 0.3594652967370086
1652499340.654304 -2.81619053304762 -43.040518628652755 0.3593919135779427
1652499341.0543256 -2.816209786369519 -43.04065722761077 0.359445223594475
1652499341.4543142 -2.8163188477277346 -43.0411099212921 0.3595851736666492
1652499341.8543375 -2.816218704505178 -43.04087654083171 0.35951477628548156
1652499342.2542975 -2.816228973399199 -43.041126875929926 0.35945930001834486
1652499342.6542988 -2.816303467627692 -43.04136258006654 0.35945249756134046
1652499342.6542988 -2.816303467627692 -43.04136258006654 0.35945249756134046
1652499343.4543102 -2.8162631048514064 -43.04152398946396 0.35964141450082915
1652499344.2543063 -2.816125839521956 -43.040370428910954 0.3596439271640926
1652499344.6543167 -2.816062574179228 -43.03937238003491 0.3596457424710542
1652499345.0543215 -2.8161345296016576 -43.03983911922705 0.3595948127480459
1652499345.0543215 -2.8161345296016576 -43.03983911922705 0.3595948127480459
1652499345.8545935 -2.816114145616422 -43.0396209752403 0.35947515104781347
1652499346.2545726 -2.8160975278564284 -43.03947076766659 0.3595910493903614
1652499346.6545491 -2.8162504049135806 -43.04088368371727 0.35961101990134997
1652499347.054553 -2.816179655062054 -43.04079858792682 0.3595547401613312
1652499347.454577 -2.816034422874721 -43.04074775461834 0.3595792955104096
1652499347.454577 -2.816034422874721 -43.04074775461834 0.3595792955104096
1652499347.8544304 -2.8161170670198308 -43.04097313685537 0.3595446457922651
1652499348.2543073 -2.8160604394821025 -43.040885956180524 0.3596271889175141
1652499348.6543198 -2.816036273442292 -43.04051660055558 0.3596430635226826
1652499349.4543118 -2.8160652564208752 -43.04056523410496 0.3595926921632733
1652499349.8555703 -2.816104854092442 -43.04069308091118 0.3595741382128853
1652499350.2545412 -2.816175520113306 -43.04082878570375 0.359571242769821
1652499350.6545517 -2.816113868783202 -43.03971013534902 0.3596011772367833
1652499351.054519 -2.8160225485608272 -43.038822907544926 0.3597528842891326
1652499351.4545581 -2.815970651430166 -43.039326839233524 0.35981867831502046
1652499351.8545823 -2.815946976299346 -43.0390687590895 0.3597068090025943
1652499352.2545638 -2.8159189471283383 -43.03921110262635 0.3596822451282988
1652499352.2545638 -2.8159189471283383 -43.03921110262635 0.3596822451282988
1652499352.654437 -2.815903035572758 -43.03937262175084 0.35966665102754974
1652499353.0546117 -2.8160848252764885 -43.04025206148718 0.3597384077326746
1652499353.454579 -2.816145593287474 -43.04055818800491 0.3598066808810751
1652499353.8546023 -2.816084558632803 -43.04037251258281 0.35971773940310164
1652499354.2547076 -2.8160294314234204 -43.04085826158991 0.35958630762570515
1652499354.6549447 -2.8159819730987485 -43.04002912270763 0.35963897591428773
1652499355.055086 -2.8160184476139354 -43.040316791206095 0.3597077583162565
1652499355.4550982 -2.8159268412773693 -43.039881763032575 0.35971559900044103
1652499355.855099 -2.816123943177391 -43.04025842964245 0.35986918590463857
1652499356.2550833 -2.8160242119209857 -43.04042564841291 0.3598278593129792
1652499356.6550934 -2.816198760801901 -43.04009440439755 0.3597236126395569
1652499357.055083 -2.816164710381896 -43.040217366193396 0.35966705411779815
1652499357.055083 -2.816164710381896 -43.040217366193396 0.35966705411779815
1652499357.4564078 -2.816112325648336 -43.040080873021026 0.35962119279495974
1652499357.8561969 -2.816083014277562 -43.03987156196682 0.3597135674945103
1652499358.2549772 -2.8160238460211673 -43.03970402205804 0.3598381019155448
1652499358.6551292 -2.816201249521148 -43.03986264738809 0.35985441857096134
1652499359.0561671 -2.8162085133484926 -43.040243453012955 0.35980003062198923
1652499359.4574316 -2.8162235466361283 -43.039601576269106 0.35974051617812847
1652499359.8576005 -2.8163382145515734 -43.040005077153246 0.35972700814511177
1652499360.2563422 -2.816238554343614 -43.03986206434932 0.3596323072563439
1652499360.655065 -2.8163067208957653 -43.040198234247406 0.35964530112327237
1652499361.455074 -2.8163793027464568 -43.04034246367214 0.3598063660650534
1652499362.2551074 -2.816380051672392 -43.04032278047091 0.3597574424741163
1652499363.054969 -2.8163858061579843 -43.0404626021452 0.3597701227680228
1652499363.4549673 -2.8164291824754866 -43.040129381046036 0.3597301243972236
1652499363.8551497 -2.816486157502134 -43.04064727914094 0.35967080831953974
1652499364.2550998 -2.816392690580607 -43.03985186518035 0.35964585062946525
1652499364.2550998 -2.816392690580607 -43.03985186518035 0.35964585062946525
1652499365.0549889 -2.816442485230437 -43.039948766170035 0.35965277938614104
1652499365.4550934 -2.816509926941056 -43.0402945852185 0.35971596786081317
1652499365.8551328 -2.8164954151632084 -43.0404463488289 0.359657627758114
1652499366.2550898 -2.816442941330245 -43.039737847097335 0.35970452367160016
1652499366.2550898 -2.816442941330245 -43.039737847097335 0.35970452367160016
1652499366.65526 -2.8163143448515555 -43.039214880838365 0.35973192800222076
1652499367.0543349 -2.8162908780131612 -43.03942693182212 0.35972487721472285
1652499367.4543009 -2.816170411180892 -43.03922532408936 0.35960936229595036
1652499367.8542953 -2.816167834106548 -43.03974626944323 0.35965162122758365
1652499368.254349 -2.816320116864767 -43.03905407024348 0.3597421045568145
1652499368.654319 -2.8163779179578263 -43.039211083309 0.3596885898522712
1652499369.054316 -2.816339942965995 -43.0398654737292 0.35962968200040935
1652499369.4545498 -2.816140857604071 -43.0391472084715 0.3595944746696741
1652499369.854556 -2.8160827235858865 -43.03943128979038 0.3596340541001024
1652499370.654555 -2.816099776271277 -43.03909006469236 0.35955876206464327
1652499371.0545902 -2.816127620374578 -43.03960900257755 0.3596030517709766
1652499371.4545739 -2.816179610649468 -43.03961495358999 0.35968304062192785
1652499371.4545739 -2.816179610649468 -43.03961495358999 0.35968304062192785
1652499371.8548322 -2.816106989269764 -43.03944934206467 0.35968229944721686
1652499372.2553234 -2.8161607111232048 -43.03932611251959 0.3596169680501028
1652499372.6552925 -2.816313482003656 -43.03962710799371 0.359578924068318
1652499373.0553432 -2.816219013047686 -43.03956341966242 0.35954515918290675
1652499373.4553401 -2.8162617334258018 -43.03980124807331 0.35953294025319205
1652499373.8553102 -2.816181393742518 -43.03914413706764 0.35964458431344604
1652499374.2553003 -2.8164123243426564 -43.039830255170656 0.3596795422014597
1652499374.6551766 -2.816444090595339 -43.039848790486076 0.3596113150279413
1652499375.0551655 -2.8162082617048396 -43.03923308926994 0.35958303651935525
