1652498023.8885133 -2.110715035953115 -42.9846089212808 -0.038350409620433734
1652498024.288643 -2.1107884317438996 -42.984974675015096 -0.0383759045294183
1652498024.6886594 -2.1107828778543674 -42.98472438098988 -0.038385787541870275
1652498025.0886092 -2.110734263441355 -42.98504846282461 -0.038364664941666626
1652498025.4886901 -2.110695968820292 -42.984489936919886 -0.03834690814460495
1652498025.8887706 -2.110604899514118 -42.98353313735653 -0.038401064605434077
1652498026.2888618 -2.1105793107709747 -42.98332439272869 -0.03839653062389581
1652498026.688882 -2.1107246125358268 -42.98325422747419 -0.03845109336996866
1652498027.0888648 -2.1107116291169215 -42.98341564517726 -0.038430970285434074
1652498027.4888527 -2.1107105224583655 -42.98383726094545 -0.038375578855473214
1652498027.8888516 -2.110606405054072 -42.9837647767001 -0.03829320110696305
1652498028.288863 -2.110617843743639 -42.9835027188819 -0.03835892845735328
1652498028.688855 -2.1106602787184965 -42.98397163292372 -0.0383026931796811
1652498028.688855 -2.1106602787184965 -42.98397163292372 -0.0383026931796811
1652498029.088854 -2.1107950316755213 -42.984122393348144 -0.038377488881089605
1652498029.4888158 -2.1106396313369586 -42.983740508070724 -0.038473599704201
1652498030.2890189 -2.110703470963414 -42.98373931422568 -0.038217887722412136
1652498031.0889876 -2.110687052341495 -42.98457158849373 -0.03826848961515372
1652498031.0889876 -2.110687052341495 -42.98457158849373 -0.03826848961515372
1652498031.4889677 -2.110733521546482 -42.98436793787279 -0.03828673862222132
1652498031.8889472 -2.1107302373071706 -42.9837468848841 -0.0382803368348934
1652498032.6889808 -2.1107319307701564 -42.9839156297928 -0.038411913920279483
1652498033.0890164 -2.1106885316407507 -42.98362924425806 -0.03828746058702437
1652498033.0890164 -2.1106885316407507 -42.98362924425806 -0.03828746058702437
1652498033.4890304 -2.1107058386607633 -42.98392943229916 -0.03822998324332216
1652498033.8890262 -2.110720531163264 -42.98373955273829 -0.03810101098952984
1652498034.2890248 -2.1107172442967475 -42.98357911545044 -0.03812751041169493
1652498034.6889997 -2.110650107518264 -42.98367195990372 -0.03827516894474903
1652498035.089013 -2.1106510600710475 -42.98352214764863 -0.03822528159258015
1652498035.4889946 -2.110712095230382 -42.98382863710291 -0.03824512854815687
1652498036.289056 -2.1107116828247916 -42.984129369973054 -0.038240068483539946
1652498036.6878812 -2.110725551157288 -42.98394870122516 -0.03818629512276128
1652498037.0890722 -2.1107392840986074 -42.98411692740999 -0.03829520527321861
1652498037.489059 -2.1107292820158507 -42.98413794130957 -0.03826710056317606
1652498037.8889408 -2.1107221298971535 -42.98402748918834 -0.038326048751753716
1652498038.2889445 -2.1107246592393114 -42.98408848118465 -0.038236776470055744
1652498038.2889445 -2.1107246592393114 -42.98408848118465 -0.038236776470055744
1652498038.688973 -2.1106951466221773 -42.983709466720306 -0.038245877438957354
1652498039.0889432 -2.1108587582008163 -42.98411945577146 -0.038274070030868246
1652498039.4889507 -2.1108301775021756 -42.984061933795076 -0.038208213671999613
1652498039.8890135 -2.1107882958622977 -42.98408416523667 -0.03825377717985212
1652498040.2889974 -2.110733035031312 -42.984097193765116 -0.03830347607850654
1652498040.689046 -2.1107105654603924 -42.9839476034187 -0.03836621534523732
1652498041.0890028 -2.1107666101772056 -42.98368346340333 -0.03836181678730316
1652498041.4890144 -2.1107364815880034 -42.98376654555212 -0.03827844119020435
1652498042.2889786 -2.1107687979810574 -42.98357466199169 -0.038224553496621905
1652498043.088994 -2.1106848908539506 -42.983880117325754 -0.038278994057854954
1652498043.8889663 -2.110710113079934 -42.9840283568544 -0.03831825685489815
1652498044.2889442 -2.110643867842022 -42.983641407359066 -0.03835274258064553
1652498044.6891167 -2.1106454844511724 -42.9838418630329 -0.03834157793237386
1652498045.088125 -2.1106788944691717 -42.983480402647544 -0.03821278127434613
1652498045.088125 -2.1106788944691717 -42.983480402647544 -0.03821278127434613
1652498045.4894004 -2.1107271498165527 -42.98378694608489 -0.038299920855338565
1652498045.8895113 -2.110739347894203 -42.98352565332287 -0.03829481411672364
1652498046.2894876 -2.110775703796463 -42.98417486188184 -0.03828101816772289
1652498046.6894984 -2.1107657353181253 -42.98396606655388 -0.03819289976873591
1652498047.0895696 -2.1107180201251925 -42.984018850510026 -0.03822889026756948
1652498047.4883735 -2.110773208956716 -42.984476332111626 -0.03822353989838212
1652498047.8883796 -2.110741026032941 -42.984769004155794 -0.03822686502435779
1652498048.2884622 -2.1107027435586216 -42.98478102283685 -0.03826877277987384
1652498049.0884428 -2.1106939915300655 -42.98414130917632 -0.03817288975683758
1652498049.8884678 -2.110698124486361 -42.98381029085007 -0.03817618962906433
1652498049.8884678 -2.110698124486361 -42.98381029085007 -0.03817618962906433
1652498050.2885365 -2.1107306416750724 -42.98334731744845 -0.03816524889877393
1652498051.088528 -2.1106480126776113 -42.98333249692215 -0.03817635258774338
1652498051.4884293 -2.110740348670464 -42.98372754921061 -0.03816181404824265
1652498051.8883538 -2.110756254038133 -42.98401705868166 -0.03816938916225421
1652498052.2883594 -2.110830271874753 -42.984052420273954 -0.038163472999650117
1652498052.2883594 -2.110830271874753 -42.984052420273954 -0.038163472999650117
1652498053.0883775 -2.1108309153649083 -42.98406235818751 -0.03816712940320316
1652498053.8883271 -2.11091416764084 -42.984328060381586 -0.03812276575621565
1652498054.2883422 -2.1108453177214326 -42.98391187834837 -0.03809953338380928
1652498054.688389 -2.110933891690201 -42.983996553270636 -0.038080731810183066
1652498055.088347 -2.110853975198652 -42.984122346017216 -0.038049522907707856
1652498055.488348 -2.1108035683650233 -42.98414453545611 -0.03814679597290194
1652498055.8883257 -2.110870505903293 -42.984410545227874 -0.038167600696723425
1652498056.2883232 -2.110721454976302 -42.98440092924701 -0.03810007695775425
1652498056.6883194 -2.1106636578712017 -42.98425413943527 -0.038118190971656585
1652498057.0883121 -2.110802164045354 -42.98461639368339 -0.03808134864241902
1652498057.488309 -2.1107732843220246 -42.98483942610919 -0.03802153460353419
1652498057.8884037 -2.110744602847263 -42.98408937138536 -0.03804693880941762
1652498058.2883248 -2.11072772739677 -42.98464039124525 -0.038156663541498326
1652498058.6883326 -2.1107375233617915 -42.984780708384555 -0.038100183109926355
1652498059.0883226 -2.110706149267622 -42.984482619728105 -0.03805424248978312
1652498059.4883447 -2.1107586018890725 -42.98457976806607 -0.038025638005393714
1652498059.4883447 -2.1107586018890725 -42.98457976806607 -0.038025638005393714
1652498059.8883398 -2.110768541408275 -42.984338426081806 -0.038041304352580185
1652498060.6884947 -2.1108276269526343 -42.98472447152346 -0.03812581968654
1652498061.0885103 -2.1107626766540166 -42.98481820029874 -0.038184228416621224
1652498061.4884927 -2.1108277358177316 -42.9848248626636 -0.03810996543852513
1652498061.8884943 -2.110732097443222 -42.98497111947933 -0.03813069573081784
1652498062.288616 -2.1106540529641205 -42.98409482753236 -0.03808235585579817
1652498062.688597 -2.1106033855193536 -42.98394845504832 -0.03802396828516941
1652498063.488622 -2.110662283403088 -42.984024510761635 -0.03805038610818173
1652498063.8887062 -2.110645188491202 -42.9842650381238 -0.03814593127101518
1652498064.2887592 -2.1106347418698315 -42.98411466950382 -0.03820867135847533
1652498064.2887592 -2.1106347418698315 -42.98411466950382 -0.03820867135847533
1652498064.6888921 -2.1107168452525844 -42.98374844409045 -0.038220127487484934
1652498065.0888777 -2.1107119588790058 -42.984429773292895 -0.038259800740140903
1652498065.4888241 -2.1107168689305293 -42.98454947891043 -0.038280302482611106
1652498065.8888252 -2.110749908285049 -42.984588104659004 -0.03822125930991199
1652498066.6888232 -2.1107286285059725 -42.98425945634861 -0.038161515437957205
1652498067.088887 -2.110677616020089 -42.984162605418405 -0.0381561185626933
1652498067.4888601 -2.1107328388930693 -42.98414899317882 -0.038157420885818916
1652498067.8888526 -2.1107057134250082 -42.98382878978499 -0.03826779558040866
1652498068.2888658 -2.110610266956165 -42.98383538511526 -0.038231669476683994
1652498068.68887 -2.110559158171104 -42.98400027244713 -0.03812441828621432
1652498069.0888174 -2.1105914781962136 -42.98403876558874 -0.0380809593901551
1652498069.0888174 -2.1105914781962136 -42.98403876558874 -0.0380809593901551
1652498069.488969 -2.110653400170005 -42.98395313690229 -0.038206836848361625
1652498069.8889744 -2.1107914468570526 -42.98426444028635 -0.03824592436658564
1652498070.2889483 -2.1107333380864146 -42.98415671767453 -0.03835445709690627
1652498070.6890032 -2.1106928542453014 -42.98431021324799 -0.038306592590893584
1652498071.0902493 -2.1107041572368663 -42.98432025075218 -0.038241538814344056
1652498071.490386 -2.110780335525236 -42.98434510219236 -0.03826596723127351
1652498071.8891227 -2.110876213645656 -42.98439998439412 -0.03818236152436605
1652498072.2891376 -2.1109405321567465 -42.98486682174957 -0.03818350050191932
1652498072.6891246 -2.1109877151661225 -42.98489355049236 -0.038207929032372745
1652498073.0891085 -2.1108277020055635 -42.98367273567949 -0.03807907337749872
1652498073.4892025 -2.110930940188992 -42.983314892859 -0.03811402024751792
1652498073.8893385 -2.1109086015435343 -42.983474416995406 -0.03831135638819294
1652498074.289356 -2.1108633112250255 -42.98359753618084 -0.03831769080447922
1652498074.289356 -2.1108633112250255 -42.98359753618084 -0.03831769080447922
1652498074.6893692 -2.1107779209215716 -42.98335362502019 -0.03822203085655135
1652498075.089345 -2.110937572534244 -42.984075337603706 -0.0381808178833582
1652498075.8893712 -2.11074577271334 -42.984250018946156 -0.03801406357771653
1652498076.2893276 -2.1106917846074538 -42.983822048426795 -0.03806084391957787
1652498076.689329 -2.110732754894692 -42.98418058966532 -0.038024594800150135
1652498077.0894525 -2.1107611538532165 -42.98368691862159 -0.0380919378685341
1652498077.4894466 -2.1108472355281656 -42.983941497568516 -0.03812750286847533
1652498077.8894281 -2.1108705412996542 -42.98393949187814 -0.03817071218988305
1652498078.6893704 -2.110795615218425 -42.984054615534504 -0.038167722924920766
1652498079.0893126 -2.1107627993982607 -42.983975568636 -0.03825464069880924
1652498079.0893126 -2.1107627993982607 -42.983975568636 -0.03825464069880924
1652498079.4893723 -2.1107969436552088 -42.983713204876395 -0.03821907554030396
1652498079.889364 -2.110787041316434 -42.984196390772595 -0.038087867602765724
1652498080.2893298 -2.1107775074265778 -42.98401625230729 -0.03811980485480915
1652498080.6893907 -2.1107886279462944 -42.984045414005045 -0.03813573252201008
1652498081.089358 -2.110585837543911 -42.98344711212164 -0.03814573822953932
1652498081.8894846 -2.1107220267971645 -42.98311557686952 -0.038321987075724706
1652498082.289496 -2.1107335667580447 -42.983326688578764 -0.0381997281604714
1652498082.6894572 -2.1107657199385113 -42.98372454676574 -0.0382801076510485
1652498083.0894847 -2.110822505154678 -42.98391055488762 -0.038343204695073074
1652498083.4895334 -2.1108711245558123 -42.98394850558232 -0.038255120234640005
1652498083.889471 -2.1108321317511853 -42.984092112334935 -0.03818730716971103
1652498084.2894728 -2.1108365401856393 -42.98358989268333 -0.03826161695662511
1652498084.6894686 -2.1108810205275352 -42.983936826663864 -0.038343549062568705
1652498085.0894423 -2.1108394768353334 -42.98403007390693 -0.03831199703888516
1652498085.4895058 -2.110839869202712 -42.983970325782124 -0.03827659987000015
1652498085.88947 -2.1108787775561613 -42.984077663039905 -0.03830973726211023
1652498086.2894764 -2.1108383257507555 -42.98399036044271 -0.03828603774773476
1652498086.6894891 -2.1108940581160542 -42.984006555997894 -0.03830680949565807
1652498087.0894904 -2.1108511607666616 -42.98361827396856 -0.038325711889180214
1652498087.4894269 -2.110816649754417 -42.98407237411164 -0.03824799584966837
1652498087.8893294 -2.110811416541715 -42.98412316448133 -0.038218110111258696
1652498088.2892873 -2.110852434832589 -42.98399986608338 -0.03825144341760345
1652498089.0891197 -2.1107830156896483 -42.98378327168359 -0.03830487954665773
1652498089.0891197 -2.1107830156896483 -42.98378327168359 -0.03830487954665773
1652498089.4891434 -2.1109084867107626 -42.98430614879357 -0.03831733363986173
1652498089.889106 -2.110818534048901 -42.983640842514184 -0.038289815619688305
1652498090.290373 -2.1107598516778223 -42.98364488661545 -0.038268565042895386
1652498090.689109 -2.1107749664558035 -42.98349444223175 -0.03819388588322059
1652498091.0891178 -2.1107952295221377 -42.98342350915574 -0.03814774963049927
1652498091.489108 -2.1108051497995275 -42.9843334832875 -0.03826514432518796
1652498091.8903508 -2.1108297417713278 -42.98412101711812 -0.03830169555525731
1652498092.2903202 -2.1108020103958856 -42.98449339226422 -0.03832081417864852
1652498092.6903481 -2.110771045806686 -42.98401518093544 -0.0382494326423094
1652498093.0903418 -2.1108130331015706 -42.98432361201833 -0.03820765304789342
1652498093.4891126 -2.1108298559189054 -42.98412276828479 -0.03814869185635961
1652498093.8891146 -2.110680713868648 -42.98435303439482 -0.038137046326291835
1652498094.2891285 -2.1108110053915343 -42.984763919301706 -0.03827503388420861
1652498094.6891403 -2.110903629717251 -42.98441758208894 -0.03824067609607518
1652498095.4889324 -2.1109032386372544 -42.98448831115731 -0.038192602193648784
1652498095.8888006 -2.1109201316040513 -42.98437630211551 -0.03825155117446871
1652498096.2890215 -2.1108922103887036 -42.98373673863064 -0.038250587165562955
1652498097.0889957 -2.1108283682355635 -42.983419824606166 -0.03828162595303708
1652498097.488973 -2.1108648670330377 -42.98358865274729 -0.03820990812066988
1652498097.8889334 -2.11077360386673 -42.98372564822988 -0.03813985554238197
1652498098.2888057 -2.110712155562269 -42.98370891899887 -0.038197710140163155
1652498098.2888057 -2.110712155562269 -42.98370891899887 -0.038197710140163155
1652498098.688879 -2.110820310514196 -42.98393149484578 -0.03827755775633612
1652498099.0888896 -2.110873444230494 -42.98402820010517 -0.03828366324510518
1652498099.4888768 -2.110792159913048 -42.98414384132156 -0.038271465653450465
1652498099.888912 -2.1108519026802552 -42.98395875272353 -0.038343778304834375
1652498100.2888591 -2.110827009037762 -42.98421043199433 -0.03838489650559668
1652498101.4889884 -2.1107994747068215 -42.98377422097255 -0.038127678702097434
1652498101.8890195 -2.1108934349218185 -42.98435884510209 -0.03817694450549247
1652498102.289005 -2.110799692801039 -42.9841834021163 -0.03827475780201073
1652498102.688953 -2.1108588817052008 -42.98408846677784 -0.038353769547190164
1652498103.088958 -2.110734564467223 -42.98338597222137 -0.038267708330442685
1652498103.4889424 -2.110767100753937 -42.983504581057886 -0.03822800086005623
1652498103.8889399 -2.110886321111731 -42.983547084662575 -0.0382179496677742
1652498104.2889338 -2.1107975008204223 -42.98338182366292 -0.038274083690352956
1652498104.688854 -2.1106953188941215 -42.983810830692796 -0.03814502241563861
1652498105.0888638 -2.1107625510074595 -42.984377535799645 -0.038160058009260756
1652498105.4888902 -2.1108754693931218 -42.98462978268671 -0.038247334155249835
1652498105.4888902 -2.1108754693931218 -42.98462978268671 -0.038247334155249835
1652498105.8888829 -2.110876918922737 -42.984641190736276 -0.038118527560369764
1652498107.0888739 -2.1108812384578677 -42.98447759843774 -0.03837666001432938
1652498107.4888203 -2.1108615857930806 -42.98399861399716 -0.038308819696534435
1652498107.888876 -2.110877096334397 -42.983887191072355 -0.038324558560937805
1652498108.2888596 -2.1108524877003534 -42.984088432901935 -0.03839272876358513
1652498108.6888745 -2.1108629351918955 -42.9838878474796 -0.03834722558955822
1652498109.0888546 -2.110865677565312 -42.984028898440116 -0.03826666282989777
1652498109.8888159 -2.1109372589950732 -42.98434468436308 -0.03829016671824953
1652498110.2888157 -2.110941740246524 -42.98407390347762 -0.03828211192974296
1652498110.6888354 -2.110917191680768 -42.98439670403508 -0.03823690505085714
1652498111.0888066 -2.1108584576115703 -42.9840599723083 -0.038219547403808285
1652498111.488816 -2.1109107367630866 -42.98452733686802 -0.038242645846119805
1652498111.888899 -2.1108246667559616 -42.98323104664236 -0.038160446475810905
1652498112.2888784 -2.1108476894302557 -42.98304919883686 -0.03815767448096824
1652498113.088883 -2.1107930551539384 -42.983082846323924 -0.038153768168640634
1652498113.8888588 -2.1109288309926164 -42.98447773258948 -0.03809685958423714
1652498114.6888802 -2.1109433318516464 -42.984635872686965 -0.03820707271801743
1652498115.0888598 -2.1109370294717165 -42.98473596258285 -0.0382535543487334
1652498115.4888108 -2.1108350423967046 -42.984531904492385 -0.03827168810544057
1652498115.888818 -2.110971035669417 -42.98496499237702 -0.03818960575007452
1652498116.2888045 -2.1110911650925432 -42.98497760389901 -0.03815937599717617
1652498116.6888497 -2.1110384922315513 -42.984438396914236 -0.038285647173239845
1652498117.0888166 -2.1110132430413033 -42.984871018249905 -0.03828066116420242
1652498117.488804 -2.1110017486482615 -42.984781254304686 -0.03830796345690751
1652498117.488804 -2.1110017486482615 -42.984781254304686 -0.03830796345690751
1652498117.8888817 -2.110977555711676 -42.98492311305997 -0.03830886053494459
1652498118.2888565 -2.110930807748468 -42.98471665056379 -0.03822499058079104
1652498118.688821 -2.110949948027957 -42.9847051466136 -0.038246126802335634
1652498119.0888186 -2.110847836427574 -42.984630782187075 -0.0383160447897265
1652498119.4888277 -2.1108247791645187 -42.98470244160412 -0.038314722392986056
1652498119.8888752 -2.1109583715196756 -42.984824266475776 -0.038297796550517016
1652498120.688885 -2.110804449149944 -42.98422394873032 -0.0382079230911308
1652498121.0888658 -2.11084913435951 -42.98489211302306 -0.03824181509105001
1652498121.488813 -2.110831315082904 -42.98491305502128 -0.03826400358793558
1652498121.8888063 -2.110792249493638 -42.984704588660996 -0.038311180434751735
1652498122.2888446 -2.110828117707783 -42.984732066414374 -0.038334192184004634
1652498122.2888446 -2.110828117707783 -42.984732066414374 -0.038334192184004634
1652498123.0888786 -2.110897609314648 -42.9851691187054 -0.03828186111476484
1652498123.4888594 -2.110919802155834 -42.98524861740018 -0.0382154836536886
1652498124.6888776 -2.1108786162631885 -42.98480999287847 -0.03824514806046103
1652498124.6888776 -2.1108786162631885 -42.98480999287847 -0.03824514806046103
1652498125.088886 -2.1108434776723675 -42.98443184749838 -0.03821033118908135
1652498125.4888756 -2.1108108154319476 -42.98445388089796 -0.03822118568697758
1652498125.8888235 -2.1108269984862567 -42.98457219707401 -0.038299064353522205
1652498126.2888312 -2.1107842441297793 -42.984515145058815 -0.0382721668604169
1652498126.6888227 -2.1107258313284625 -42.98446853278158 -0.03829709400237702
1652498127.4888644 -2.1107500576565066 -42.98408589211166 -0.0383189451747557
1652498128.2888725 -2.110721142873909 -42.98396836778278 -0.038243900601036884
1652498128.6888537 -2.1107206427555827 -42.98416903377644 -0.03822636018417702
1652498129.8888102 -2.110736492207147 -42.98318542545051 -0.038266831460207706
1652498130.2888176 -2.1107072708050474 -42.983567681200654 -0.03830660615771736
1652498130.6888103 -2.1107509414323014 -42.983605984925966 -0.03821568896125094
1652498132.689132 -2.110719255803545 -42.9839392188229 -0.03817484687389544
1652498133.0891223 -2.110893987411954 -42.98484994979469 -0.038169812085332766
1652498133.4891024 -2.110850891560651 -42.984370863075895 -0.03824293590887606
1652498133.8891094 -2.1108304492282404 -42.98352874036233 -0.038384888578089416
1652498133.8891094 -2.1108304492282404 -42.98352874036233 -0.038384888578089416
1652498134.2891772 -2.110794112878371 -42.98334047983559 -0.03840254250779129
1652498134.6891026 -2.110707771319623 -42.98325734573384 -0.03827471743147365
1652498135.0890815 -2.110709095614406 -42.98397972988533 -0.03819513919316542
1652498135.8891401 -2.1107738505217304 -42.984146231808616 -0.03816662964833806
1652498136.289162 -2.1107555555179056 -42.983907556427624 -0.03810933516047238
1652498136.6903994 -2.1107566015812296 -42.98371533675163 -0.03826086763831554
1652498137.0903757 -2.110812697627341 -42.98402230877054 -0.03826654789287548
1652498138.290182 -2.1106712638549956 -42.983790312291056 -0.03832187927787456
1652498139.090101 -2.1108172062425234 -42.983861619008024 -0.03827108822168934
1652498139.8900893 -2.1107818036505144 -42.983643904838935 -0.03823031463373616
1652498140.2901185 -2.1107803201937694 -42.98388421901902 -0.038256442113570266
1652498140.690115 -2.110815862550262 -42.983972474639586 -0.03822489034031379
1652498141.0901494 -2.1108284000212842 -42.983771265264686 -0.03822188872597049
1652498141.4901009 -2.1107958678498973 -42.98412432597644 -0.03820465137577089
1652498141.8901143 -2.110839751532839 -42.983891726099415 -0.038140388196754305
1652498142.2901258 -2.1107983944679978 -42.98408655563084 -0.03798885438547839
1652498142.6901608 -2.110842964995025 -42.98384263748869 -0.0380335630594526
1652498143.0901105 -2.1108814421470194 -42.98423944338942 -0.038169901768237535
1652498143.4901261 -2.110888581399152 -42.984349692643946 -0.038128661748739356
1652498143.8900914 -2.110807837609748 -42.9839143378546 -0.038096699810188706
1652498144.2901013 -2.1109382282014852 -42.98408546196353 -0.03816818224313456
1652498144.6901069 -2.1109478501524492 -42.9844643722333 -0.03828020923616199
1652498145.0901082 -2.110931277026226 -42.98347364072963 -0.03825114756634529
1652498145.4901052 -2.1109088330076036 -42.98367539396843 -0.03826264939428031
1652498145.8901339 -2.1108695364884227 -42.98363882628946 -0.038177897690146456
1652498146.2901895 -2.110894866183137 -42.98402997949374 -0.03800811556609529
1652498146.6891372 -2.1108360467031666 -42.98371385526127 -0.03794211321130858
1652498147.0891414 -2.1108189611771664 -42.98371322816763 -0.03809299041118969
1652498147.4891255 -2.1108954764614767 -42.983556862162125 -0.038187605687336146
1652498147.8891325 -2.1110516676539177 -42.983918035641466 -0.03814509791915488
1652498148.289135 -2.1109856054758183 -42.98409326085984 -0.038094628713555734
1652498148.689124 -2.110923746686316 -42.98369730970186 -0.0380156668057256
1652498149.0891442 -2.1110119770259326 -42.984292129789466 -0.0380820461710093
1652498149.4891434 -2.110795993177396 -42.983895926961104 -0.03802138570619351
1652498149.889117 -2.1108283113814785 -42.98380278899325 -0.03809543888999811
1652498150.2891247 -2.110722869170676 -42.98369888880882 -0.03813809465965601
1652498150.6890678 -2.110461893447458 -42.98349616242662 -0.03806402874822301
1652498150.6890678 -2.110461893447458 -42.98349616242662 -0.03806402874822301
1652498151.0890996 -2.1106149635765643 -42.983666608498865 -0.038066801225332125
1652498151.4891164 -2.110572862932349 -42.98371836139901 -0.03816087557176101
1652498151.8891253 -2.110657301917046 -42.9841450034409 -0.03805813677262271
1652498152.6893754 -2.1107912138278193 -42.98501762102214 -0.03811143503332454
1652498153.0893552 -2.110875381487423 -42.98501228499189 -0.03810151834603698
1652498153.4894989 -2.110983417706821 -42.98504651795528 -0.03800209794597281
1652498153.8894932 -2.1108452973045466 -42.98403220447875 -0.03809382556001767
1652498154.2894812 -2.1109053504553907 -42.98403835236839 -0.038092523795136946
1652498154.6894877 -2.1107254497619357 -42.98339873997207 -0.038080113127487936
1652498155.4894483 -2.1108770170127054 -42.98390789632737 -0.03826741181922727
1652498155.4894483 -2.1108770170127054 -42.98390789632737 -0.03826741181922727
1652498155.8894587 -2.1109390923119014 -42.98381366965879 -0.03826850507738305
1652498156.2895064 -2.111050555481362 -42.984196974147004 -0.03829635362663608
1652498156.689477 -2.1110952221538506 -42.98498543186387 -0.03832737300123301
1652498157.089485 -2.1110849588999416 -42.98482693624301 -0.03822424223199983
1652498157.4894428 -2.111148199657756 -42.9851345199704 -0.038136417836668934
1652498157.8895047 -2.1111061148215224 -42.98472591695622 -0.03817492720038218
1652498158.289571 -2.1110192735813555 -42.98481060373031 -0.03827147279689719
1652498158.689553 -2.1110132900055154 -42.98474014078922 -0.03833229739414873
1652498159.0895905 -2.110997959212547 -42.98484336370524 -0.0381570620832925
1652498159.4895322 -2.110808275467984 -42.98464497619606 -0.038175904271862016
1652498159.8894308 -2.110864824987531 -42.98509056631211 -0.038325570582003254
1652498160.2893536 -2.1109738950563077 -42.984713038116816 -0.038296535141150445
1652498160.2893536 -2.1109738950563077 -42.984713038116816 -0.038296535141150445
1652498161.089391 -2.1109847214525663 -42.98362998333298 -0.03829831655434762
1652498161.889344 -2.1108271638871745 -42.9840702438712 -0.03837408214091381
1652498162.2893105 -2.1108857164597383 -42.984206760803175 -0.03837356316564772
1652498162.689239 -2.110868666902449 -42.984107971441 -0.038345498781757026
1652498163.0891922 -2.1109110670732543 -42.98421439839757 -0.0384381380215022
1652498163.4893675 -2.110916943753974 -42.98396515576084 -0.03829218390824152
1652498163.8893108 -2.11098388440488 -42.98435184011075 -0.03827682289813261
1652498164.2893105 -2.1110012836965266 -42.984170877476664 -0.0382287159555591
1652498164.6893604 -2.1110885009602427 -42.984344267459264 -0.03834624212725685
1652498165.0893462 -2.111155857616362 -42.98430965735083 -0.03836219051801448
1652498165.0893462 -2.111155857616362 -42.98430965735083 -0.03836219051801448
1652498165.889359 -2.1110080363109835 -42.98443966884551 -0.03834656560701649
1652498166.2893364 -2.1110480063716484 -42.984376950655346 -0.03834658600493346
1652498166.6893554 -2.1109938965141275 -42.984210345922214 -0.03832409375756163
1652498167.0893347 -2.1110437131366995 -42.98462868853357 -0.03826657533785366
1652498167.8893278 -2.110938147326646 -42.98466548765691 -0.03827541914851512
1652498168.2894776 -2.1109624138486307 -42.98405317553014 -0.03822521471275342
1652498168.6894302 -2.110969455727769 -42.984501914265444 -0.038379837972478736
1652498169.0893054 -2.1109467112310245 -42.984644200403764 -0.03833540033438998
1652498169.4893255 -2.1109849810175874 -42.98451135267164 -0.03834311819919961
1652498170.2893267 -2.111015670380973 -42.98494140202729 -0.038246754101364744
1652498170.6893485 -2.1110111800926203 -42.98461982226558 -0.03834933844274685
1652498171.4893224 -2.11098027385915 -42.98493219185987 -0.038375561383230894
1652498172.289349 -2.1110001128575453 -42.984679235374685 -0.03847398943466562
1652498172.289349 -2.1110001128575453 -42.984679235374685 -0.03847398943466562
1652498172.6893733 -2.1109270658374637 -42.98448340508061 -0.03848515344336145
1652498173.0893464 -2.1109714474915 -42.98440106934946 -0.03842331735086435
1652498173.4906096 -2.111001351400973 -42.9845996526295 -0.03841569467347711
1652498173.8893654 -2.1110304678011174 -42.98434739032486 -0.03840149346888477
1652498174.2893462 -2.1110208922999503 -42.98452853028721 -0.038390099323256766
1652498174.6893535 -2.1110286643346994 -42.98452791297949 -0.03840001635997531
1652498175.4893525 -2.11102110191389 -42.98437822871395 -0.038386962088770515
1652498175.889327 -2.1110705279871667 -42.98392416397769 -0.03837755068257831
1652498176.2893562 -2.1111056523376535 -42.983501501461326 -0.038332357997642175
1652498176.6893516 -2.1110288514408744 -42.98345605597657 -0.0383594094300172
1652498177.0894878 -2.110977513645592 -42.983518687787296 -0.038430931478877106
1652498177.4894931 -2.110944252424347 -42.983410822141245 -0.03841196098204036
1652498177.8894916 -2.1110491273875995 -42.98406526375364 -0.03842874086982684
1652498178.2895377 -2.111022748188006 -42.983997872424936 -0.038337269125213735
1652498178.689492 -2.1110125021767914 -42.98427833027528 -0.03840777397814876
1652498179.0894725 -2.1110163540720457 -42.98422814229468 -0.03839303341937084
1652498179.489504 -2.1110246681605407 -42.983797220213184 -0.03834560049066654
1652498179.8894346 -2.111031481371935 -42.983858553602495 -0.03820249434224915
1652498180.6894274 -2.1109960357311204 -42.98385953809852 -0.03831653795824569
1652498181.089306 -2.111057174719144 -42.98391535860088 -0.038346976975828395
1652498181.48938 -2.111024907967507 -42.983866727760436 -0.038400237694411865
1652498181.889342 -2.1110186390464243 -42.98420858896208 -0.0383375525678441
1652498181.889342 -2.1110186390464243 -42.98420858896208 -0.0383375525678441
1652498182.2893744 -2.111048437201374 -42.98465777578503 -0.03832500482862933
1652498182.6906583 -2.111110907882387 -42.984723180147945 -0.03838601856064899
1652498183.090587 -2.1111142428059084 -42.98510368621655 -0.038394627386530766
1652498183.4905813 -2.1111106984026016 -42.98441287427773 -0.03835554534779062
1652498183.8905864 -2.110981257609815 -42.984782866199986 -0.038283170721777116
1652498184.2893581 -2.1109212257843284 -42.98372420435339 -0.03830572349315475
1652498184.6905751 -2.1109237202073796 -42.9838724088098 -0.038476030287029395
1652498185.090649 -2.1108381963052976 -42.98376901870287 -0.03836214107443525
1652498185.4905922 -2.1109387436886955 -42.98327091930105 -0.038408230010986755
1652498185.8905833 -2.1108565165597817 -42.983404886702154 -0.03855068033493775
1652498186.6906068 -2.111010882917748 -42.98430816206234 -0.038437160585292784
1652498186.6906068 -2.111010882917748 -42.98430816206234 -0.038437160585292784
1652498187.0905874 -2.110990842320673 -42.98447026490802 -0.03839720288149562
1652498187.4906693 -2.111023658017583 -42.98453833889862 -0.0383930474673827
1652498187.890625 -2.1111186627363265 -42.9847113381953 -0.038500658219158324
1652498188.2906337 -2.1110303411418982 -42.98457575535751 -0.03858759634589465
1652498188.6906037 -2.1111559032996468 -42.984156849459296 -0.038577933944086706
1652498189.0905912 -2.1110724342532867 -42.98419486516551 -0.0383565636423181
1652498189.4905756 -2.1109044850501455 -42.9842662860651 -0.038320416639330335
1652498189.8906584 -2.1108374081880505 -42.9838775009857 -0.03851923900637927
1652498190.2905884 -2.1108929456560697 -42.98405519027521 -0.03844126096709105
1652498190.6905842 -2.1109347657871735 -42.98380170631623 -0.038461768718780875
1652498191.0906048 -2.110995430033614 -42.98439854705643 -0.03850761171091577
1652498191.4906013 -2.111031490094124 -42.98405610868883 -0.038452709958974596
1652498191.8906362 -2.1110241869416546 -42.98407494407382 -0.038598859443187805
1652498192.2906232 -2.1110042736647063 -42.9844473833595 -0.03856839563352976
1652498192.690588 -2.1109133663161357 -42.98383315289919 -0.0384621127716942
1652498193.4905655 -2.1109252025887315 -42.98409271020733 -0.038482804289454164
1652498193.8905568 -2.110932191407519 -42.98387162403296 -0.03849657238146176
1652498193.8905568 -2.110932191407519 -42.98387162403296 -0.03849657238146176
1652498194.2904596 -2.1108319971720366 -42.98384876796761 -0.03843389324266233
1652498194.6904702 -2.11090260899387 -42.98408378640331 -0.03851456520187119
1652498195.0905452 -2.11100288100321 -42.98422846093875 -0.0384412013100458
1652498195.490484 -2.1110045667856845 -42.98405709462331 -0.038518586341570404
1652498195.8904881 -2.1109127175898283 -42.98370249949603 -0.03849816364569025
1652498196.290479 -2.1110406775590844 -42.98440635406794 -0.038445391411006835
1652498196.6904345 -2.110986935563874 -42.98393835949665 -0.03848533382912822
1652498197.0904458 -2.111050094824032 -42.984014407334804 -0.03848837698258012
1652498197.8903003 -2.1109151670889172 -42.984365447044276 -0.038352022799633345
1652498198.2903633 -2.1110612666376003 -42.98428561620729 -0.038371054555558004
1652498198.690332 -2.1109468795012596 -42.984262946360104 -0.03837212660248246
1652498199.0904312 -2.1109215959306473 -42.98412473935529 -0.03833226976740284
1652498199.4905014 -2.110957288190967 -42.98429208073523 -0.038394429700215726
1652498199.8906252 -2.110994039722306 -42.98428933436534 -0.03842630577796319
1652498200.2906234 -2.1109870035288916 -42.9840490750963 -0.0384433864794923
1652498200.6905928 -2.1109842473522926 -42.984039412475845 -0.03842768806602448
1652498201.090607 -2.110974129120473 -42.984080564199104 -0.038392021013662236
1652498202.6905763 -2.11115733668354 -42.984661484927486 -0.03826065936148482
1652498203.0906253 -2.111017463499045 -42.98450848371418 -0.03840970389081233
1652498203.4906514 -2.111192884019718 -42.98437695361832 -0.03840195308897448
1652498204.6906116 -2.1110325532930077 -42.9838751289443 -0.038498104297157665
1652498205.4905932 -2.110967371418516 -42.9837788130796 -0.038525998856378585
1652498205.4905932 -2.110967371418516 -42.9837788130796 -0.038525998856378585
1652498205.890648 -2.110957073547304 -42.98374041697778 -0.03843699679519297
1652498206.2906017 -2.1109609798661193 -42.98403104550262 -0.038414822954878136
1652498206.6906483 -2.1109185656807243 -42.983913442750854 -0.03842265475837103
1652498207.490582 -2.111051156337453 -42.98383340321838 -0.03853589617252429
1652498207.8905842 -2.1110307309685146 -42.983956647273644 -0.03839135320115872
1652498208.2905605 -2.1109462415419724 -42.98424213266719 -0.038442732449419925
1652498208.6904514 -2.110969498399931 -42.984710961000445 -0.038501959477248215
1652498209.090475 -2.110935772736595 -42.98409143923021 -0.038533805548438826
1652498209.4904964 -2.1109975460608847 -42.984847986763064 -0.038628945859045305
1652498210.2906027 -2.110917598878271 -42.98440301678281 -0.03855719617423453
1652498210.2906027 -2.110917598878271 -42.98440301678281 -0.03855719617423453
1652498210.69064 -2.110967858776479 -42.98381923737554 -0.03849387388467135
1652498211.0906157 -2.1108478901230727 -42.98412711752684 -0.038540524474175
1652498211.490621 -2.1108342747541746 -42.98391685628997 -0.0386004495065857
1652498211.8906066 -2.110849593372203 -42.983846333396706 -0.038546520370680015
1652498212.6905956 -2.110840583119649 -42.984189740496106 -0.0383648333267691
1652498213.4905581 -2.110878651739437 -42.98407573288381 -0.038478324514271245
1652498213.8904383 -2.1108424823619814 -42.98361587926467 -0.038582840197312285
1652498214.2904253 -2.110920661885971 -42.984121305397565 -0.03863615215767097
1652498214.6903234 -2.1109686434181176 -42.98402876533858 -0.03856995145774389
1652498215.0903034 -2.1109006057839563 -42.983603194990565 -0.038487099514157186
1652498215.0903034 -2.1109006057839563 -42.983603194990565 -0.038487099514157186
1652498215.4902005 -2.1108384231428587 -42.98383833158149 -0.03843377856114932
1652498215.8902078 -2.11089572907896 -42.98359368598812 -0.038469984550580594
1652498216.29035 -2.1108878947158827 -42.98371398055744 -0.038511028445347484
1652498216.6903675 -2.110935148703142 -42.98385148971048 -0.038487842786058435
1652498217.090391 -2.1109753219826866 -42.98375901520801 -0.03845989335101718
1652498217.4903562 -2.1110230908137213 -42.98415670884979 -0.038466607407440234
1652498217.8903525 -2.1109681443834774 -42.98448166542397 -0.0384051093916577
1652498218.2903962 -2.1108964689686616 -42.98394508921661 -0.038409540173638956
1652498218.6904721 -2.1109119114330275 -42.984073896841416 -0.038450699036569946
1652498219.49052 -2.110951697835981 -42.98369030527874 -0.03846759032606811
1652498219.8904588 -2.1107669143015197 -42.983622360988974 -0.038444713026551
1652498220.2904692 -2.110817997115457 -42.98370933353243 -0.03843724559652478
1652498220.2904692 -2.110817997115457 -42.98370933353243 -0.03843724559652478
1652498220.6905081 -2.1108836582697244 -42.98348404901144 -0.038485722723120286
1652498221.090472 -2.1108315609104684 -42.98321689931015 -0.03848049986558977
1652498221.4904745 -2.110887434913982 -42.98367397807019 -0.03850631945951172
1652498221.890518 -2.110897928288746 -42.98390184236169 -0.03867612820893829
1652498222.2904735 -2.1109446048825706 -42.984129139679006 -0.038691518387373336
1652498222.6904907 -2.1108762281255027 -42.9838738059494 -0.03862194945892283
1652498223.0905702 -2.110855799365904 -42.98398604442541 -0.03856300205141949
1652498223.4905593 -2.1108120129784966 -42.98351821969832 -0.03853210871051621
1652498223.8904352 -2.110900852986653 -42.983782493225625 -0.03858054110998255
1652498224.690339 -2.11086787436599 -42.98339384581137 -0.03857535751885338
1652498225.0904095 -2.11082134141874 -42.983388093230815 -0.03846615834689843
1652498225.4904916 -2.1109182131460678 -42.984906027542294 -0.038385842427228534
1652498225.8904703 -2.110958941321127 -42.98471243471588 -0.038433248520485686
1652498226.2904484 -2.110888790746941 -42.98485745668484 -0.038417853437246574
1652498226.6904674 -2.1108838094972002 -42.98485730683529 -0.03845893841137138
1652498227.4904337 -2.11089959328067 -42.98481590227482 -0.03848468899670543
1652498227.4904337 -2.11089959328067 -42.98481590227482 -0.03848468899670543
1652498227.8903203 -2.1108490092846166 -42.98360699223094 -0.03844743208495349
1652498229.4914799 -2.110869464355755 -42.983604836835404 -0.03851968311088122
1652498229.4914799 -2.110869464355755 -42.983604836835404 -0.03851968311088122
1652498230.290374 -2.111055801099467 -42.98527599915382 -0.038554543261134444
1652498231.0915687 -2.1109186475487034 -42.985285646209086 -0.03848795591863824
1652498231.8914425 -2.1108528219389573 -42.98472971754309 -0.0383993614274602
1652498232.290211 -2.110827554341328 -42.984811116854225 -0.03843498863133138
1652498232.6901906 -2.1108237243082906 -42.98486164545042 -0.03841997820242926
1652498233.0901945 -2.110773591899891 -42.98428483089384 -0.03831628056290026
1652498233.4902148 -2.110776773197223 -42.98445461140466 -0.03834939788872427
1652498233.8901913 -2.11081326113829 -42.98460134764605 -0.03845595544229857
1652498234.2903445 -2.1108511301671333 -42.98370555886812 -0.03857891455370244
1652498234.6903703 -2.1108872149375246 -42.98336350197426 -0.038490721080920554
1652498235.090347 -2.110893393375833 -42.983634382640574 -0.03843006788232012
1652498235.4904718 -2.1108671791167684 -42.983635347065274 -0.038493818611978425
1652498235.8904572 -2.110853035906974 -42.98350467945857 -0.03860707830352322
1652498236.2904513 -2.1108930869001634 -42.98378319978956 -0.0385628324413243
1652498236.6904325 -2.110838587063708 -42.98368732436893 -0.03849226707512671
1652498237.0903254 -2.1108229975116073 -42.983808495787905 -0.03850072717238945
1652498237.4903085 -2.1109139376444297 -42.984083256469056 -0.03849685650928669
1652498237.890195 -2.11090816324798 -42.983752806231685 -0.038506529054626204
1652498238.290206 -2.1108774612120644 -42.983914776737194 -0.038538115161044995
1652498238.6901858 -2.110792779929981 -42.98399989283734 -0.03858507528591948
1652498239.090348 -2.1108604761037846 -42.98482601133684 -0.038697311990096794
1652498239.4903193 -2.110877825613965 -42.98476491289317 -0.038683872970353916
1652498240.690161 -2.1108670819380926 -42.983853208695905 -0.03872159673180664
1652498241.09007 -2.1109190001954268 -42.98356922990056 -0.038722633283772734
1652498241.4901347 -2.1109646291407316 -42.983736481454415 -0.03873662659101473
1652498242.290056 -2.1109474901203633 -42.9837569554301 -0.038795648691429874
1652498242.6899335 -2.1108478592063102 -42.98363312702667 -0.03879557256841193
1652498243.0910554 -2.110837270320202 -42.983425717316244 -0.038590576735747284
1652498243.4909568 -2.1109678303963033 -42.984147822944564 -0.03867899772303551
1652498243.4909568 -2.1109678303963033 -42.984147822944564 -0.03867899772303551
1652498243.8910427 -2.1109907031058395 -42.98399655086304 -0.03863265036902769
1652498244.2910168 -2.1109711077461943 -42.98419842917632 -0.0386172366148414
1652498244.6909554 -2.1107971146843187 -42.98400102144072 -0.038462531013076895
1652498245.091048 -2.1108343236612797 -42.98392856782046 -0.03845322799316919
1652498245.4909961 -2.110882759100245 -42.98422689514515 -0.03838229277481975
1652498246.6906273 -2.110852867318271 -42.984138167676136 -0.03842305301397042
1652498247.0906305 -2.1107708731182973 -42.98434157726201 -0.03862581095390566
1652498247.4906507 -2.1108208705156963 -42.98391822937052 -0.03855653191066338
1652498247.8906314 -2.110847502739241 -42.98419790369163 -0.038487492898732045
1652498248.2906604 -2.1108577825597123 -42.984608908600826 -0.03841923575589595
1652498248.6906023 -2.1109046998830294 -42.98456573240715 -0.0384237356576812
1652498248.6906023 -2.1109046998830294 -42.98456573240715 -0.0384237356576812
1652498249.090624 -2.110846535045499 -42.984248760105785 -0.03842785655582137
1652498249.490599 -2.1107675796578924 -42.98385199429317 -0.03851606108106781
1652498249.8907387 -2.110767075827307 -42.982780369813625 -0.03845916006554406
1652498250.6907253 -2.1107501339246673 -42.98322064856357 -0.038612958345358994
1652498252.29074 -2.1107473701508557 -42.983199906956216 -0.03868922910326644
1652498252.6907527 -2.110807181745706 -42.983597163096434 -0.038666194911474716
1652498253.0908048 -2.110773467569179 -42.98320811513224 -0.03869996904469836
1652498253.4907715 -2.110886249327976 -42.98303056500874 -0.038689518444831705
1652498253.4907715 -2.110886249327976 -42.98303056500874 -0.038689518444831705
1652498254.2897224 -2.110997916254828 -42.983384137445235 -0.038687275734443194
1652498254.689727 -2.110907083998394 -42.983571639323536 -0.03858025650295799
1652498255.4897256 -2.1108503738722764 -42.98347453840793 -0.03862869258337043
1652498255.8897276 -2.1107430070672013 -42.983571225113245 -0.038668683665795955
1652498256.689724 -2.110828600018242 -42.983324731474994 -0.03870630496848376
1652498257.0898645 -2.1107301061881607 -42.98348166606481 -0.03868606755673598
1652498257.4900346 -2.1108000005115555 -42.9834972297098 -0.038682047397826935
1652498257.8899877 -2.110930686524707 -42.98350842478095 -0.03871556960536743
1652498258.2900038 -2.1108366012170903 -42.98351410163381 -0.03875169452936783
1652498259.0900898 -2.110868472511431 -42.98374307481474 -0.038704750611550154
1652498259.4902241 -2.110829320724058 -42.98401583985091 -0.03873547490680901
1652498259.8903594 -2.110783205521546 -42.98346817489739 -0.03868878640927231
1652498260.290441 -2.1107700027786125 -42.98379071364964 -0.038602499166040416
1652498260.290441 -2.1107700027786125 -42.98379071364964 -0.038602499166040416
1652498260.690535 -2.1107169283845693 -42.98390331412103 -0.038695846263111344
1652498261.490509 -2.1107439706593354 -42.98423320204257 -0.038615339943949945
1652498262.6904643 -2.11091436041486 -42.98432012253517 -0.03881199392247231
1652498263.0904877 -2.1109491424848095 -42.9846598394113 -0.03870468478862937
1652498263.490472 -2.1108953737979794 -42.984893339441534 -0.038746284204564385
1652498263.890478 -2.1107923013670975 -42.984760259346245 -0.038698633351202716
1652498264.290479 -2.1108430091778514 -42.98478658857537 -0.0387379377594414
1652498264.690471 -2.1109620107929015 -42.98475985270602 -0.03864987207722437
1652498265.09048 -2.1109765507849314 -42.9852805118465 -0.038608378897151185
1652498265.490537 -2.1109174074359194 -42.98511296196319 -0.038696390379134527
1652498265.8906033 -2.1108674552768205 -42.984034445976796 -0.03864574431601986
1652498266.2906528 -2.1108573996280233 -42.98393399792778 -0.0387225148998907
1652498266.6906068 -2.110914704364033 -42.98416091671457 -0.03871098802999451
1652498267.4905975 -2.11085837120491 -42.984365760581035 -0.03864457286122985
1652498267.8906426 -2.1108153508742804 -42.98456783550511 -0.03874391279102635
1652498268.2906773 -2.110802401566122 -42.98482850855103 -0.038807107739044
1652498268.690643 -2.110791982861577 -42.984799220135784 -0.03879826297477201
1652498269.09064 -2.110867462555891 -42.985065524168625 -0.03874540186246611
1652498269.490662 -2.110954822696095 -42.98512045353458 -0.038705714093007215
1652498269.8907173 -2.110874060395263 -42.985024836519194 -0.038760526800818484
1652498270.2909875 -2.1108099517934775 -42.984166395797395 -0.03882432369694783
1652498270.6898525 -2.110837867850761 -42.98423557777309 -0.038751458794082594
1652498271.090021 -2.1108403847541375 -42.98441701851956 -0.03864585492062994
1652498271.4899933 -2.11076092966218 -42.98411124130204 -0.03866779761523398
1652498271.8899977 -2.1107996814926757 -42.98400777953185 -0.03873181823775218
1652498271.8899977 -2.1107996814926757 -42.98400777953185 -0.03873181823775218
1652498272.2900214 -2.1108091523922994 -42.983495993318016 -0.03873800635300795
1652498272.6901274 -2.1107571888391368 -42.98366960509025 -0.03874845750236788
1652498273.0900962 -2.1108148755274527 -42.9838475875279 -0.03863293843011384
1652498273.490093 -2.1108419675144248 -42.98346535578438 -0.038603077538115815
1652498274.2902143 -2.110806814695394 -42.98376697755051 -0.03871631337245385
1652498275.0916033 -2.1108549325593646 -42.98480620749488 -0.03870770784270927
1652498275.490374 -2.1108134871341555 -42.98429775899443 -0.03871035453101823
1652498275.8916185 -2.110873050642832 -42.9847460044815 -0.03861209902582602
1652498276.2903275 -2.1108624313741897 -42.984878128919114 -0.03851158655237413
1652498276.690198 -2.1107925172981714 -42.98464292672376 -0.038442955391565836
1652498277.0913446 -2.1107901410186036 -42.984200428622906 -0.038590911958201024
1652498277.0913446 -2.1107901410186036 -42.984200428622906 -0.038590911958201024
1652498277.4914143 -2.1108229271038432 -42.98414741390823 -0.038659048417635566
1652498277.8915398 -2.1106387414885894 -42.98419841881095 -0.03874663378985049
1652498278.2916217 -2.1105754744502327 -42.983681957801096 -0.038697455888285104
1652498278.690389 -2.1107096189551084 -42.984294953204696 -0.03866773806244017
1652498279.090506 -2.110687245836149 -42.98368618318238 -0.038572194416746086
1652498279.4905558 -2.110824874849775 -42.9844078151312 -0.038662032248946265
1652498280.2905 -2.11081814752814 -42.98446843761961 -0.03865705394296609
1652498280.6905072 -2.110865883161032 -42.984646282062336 -0.03860953476867479
1652498281.0906858 -2.110876833713835 -42.9845850764865 -0.03864143077944798
1652498281.4906688 -2.1109082038545015 -42.984894048743705 -0.03861240373048247
1652498281.8906314 -2.1108437388053085 -42.98489656884021 -0.03875620102651273
1652498281.8906314 -2.1108437388053085 -42.98489656884021 -0.03875620102651273
1652498282.6906579 -2.1107591112604975 -42.98486189408547 -0.03876211673893448
1652498283.0906017 -2.1108920671488764 -42.98521517233728 -0.03866566139137445
1652498283.4906673 -2.110889962158409 -42.98474395606901 -0.0386949772619849
1652498283.8906248 -2.1107991703386517 -42.983286996050985 -0.0386675955072488
1652498284.290597 -2.1108236190965872 -42.98369745852115 -0.03856675782767066
1652498284.6906543 -2.110740154320678 -42.983242003393165 -0.038555104206276614
1652498285.090756 -2.110739676266566 -42.983322359538896 -0.03854185538035154
1652498285.4908152 -2.1108044974992 -42.98369828119802 -0.03860288326703243
1652498285.890758 -2.1109379556857535 -42.98465158650637 -0.038613900027554326
1652498286.290781 -2.110940000470528 -42.98512186966031 -0.03866604551026431
1652498286.6907365 -2.110912915771749 -42.98549328195489 -0.03876521340431649
1652498287.0907454 -2.1109688939234683 -42.9852609752407 -0.038607440994453734
1652498287.0907454 -2.1109688939234683 -42.9852609752407 -0.038607440994453734
1652498287.4907677 -2.110974443364107 -42.98528086828967 -0.03858925292989929
1652498288.2907407 -2.110868681661061 -42.98487595625727 -0.038665301209637015
1652498288.69074 -2.1107985337183477 -42.98433004293473 -0.03860161231039638
1652498289.090814 -2.1108631558006516 -42.98427513784608 -0.03865487370375914
1652498289.090814 -2.1108631558006516 -42.98427513784608 -0.03865487370375914
1652498289.4908082 -2.110797709329977 -42.98409796752952 -0.03874347648861659
1652498289.8911169 -2.110807365487263 -42.98437870063656 -0.03867798002814554
1652498290.2910895 -2.1108101570068474 -42.983686981865205 -0.038682103030481696
1652498290.691147 -2.1107547609868744 -42.983730812984255 -0.03866839494679264
