1652500602.082892 -3.1495881388918576 -42.08487805072331 -0.0007444781747942761
1652500602.4828846 -3.149521582800972 -42.08413073283595 -0.0008264893410763821
1652500602.884077 -3.1494109449024066 -42.0841029954936 -0.0007723265359565745
1652500603.6839206 -3.1493054641315794 -42.08409485900198 -0.0006530849324886123
1652500604.0839288 -3.149371482956674 -42.08402718678804 -0.00047969107346831213
1652500604.4839003 -3.1493062851722478 -42.084618263578655 -0.0004128867018810961
1652500604.8838978 -3.1493894731577434 -42.0850819356127 -0.00032843918152967305
1652500605.282793 -3.1494003955921563 -42.085211523862256 -0.0003329373549789613
1652500605.6828141 -3.149422078274391 -42.085168722501905 -0.0004557853039385343
1652500606.083989 -3.149469824821473 -42.08495202507026 -0.00044025004576438154
1652500606.4838881 -3.149467688019449 -42.08484158323095 -0.00042406590331348776
1652500606.882828 -3.1494358881155513 -42.08416085614431 -0.0004308064463948852
1652500607.281512 -3.149459434584884 -42.08412802177933 -0.00041981077323063887
1652500607.682687 -3.1494012754063334 -42.083892974302955 -0.0005168846094161031
1652500608.0813644 -3.149445872969224 -42.08422993654933 -0.0007088047947624507
1652500608.4826002 -3.149352292197328 -42.083817790679475 -0.0007479415172932727
1652500608.8814352 -3.1494226595336485 -42.08438337989439 -0.0008515582425418083
1652500609.282756 -3.1494781261588365 -42.084195994744775 -0.0008448242699840985
1652500609.6815505 -3.1494604737290786 -42.084379129434055 -0.000838394020530403
1652500610.4816582 -3.1495170276733226 -42.084443161582726 -0.0008816095000169014
1652500610.8828702 -3.1494357830190296 -42.08414043555744 -0.0007884525779587245
1652500611.2814925 -3.1494845892705534 -42.08478909127078 -0.0007407324518716937
1652500611.682656 -3.1495618596229633 -42.0848408620555 -0.0006244890443258197
1652500612.0826895 -3.149560574277686 -42.08477062814366 -0.0005490927640825066
1652500612.4838035 -3.149552448967654 -42.08497291977742 -0.0004205296530973776
1652500612.8826478 -3.149668175825237 -42.0848693454975 -0.00037510944064191726
1652500613.2827294 -3.149525795905749 -42.08481485969833 -0.0004803710877663431
1652500613.681391 -3.149579574010005 -42.085050278129415 -0.0005273869813496382
1652500614.082702 -3.1497720636024056 -42.085078939732504 -0.00048062440866869505
1652500614.481624 -3.1496194207062267 -42.08511630454951 -0.00044040700716987957
1652500615.2821803 -3.149533749558401 -42.08492464158409 -0.0005016755714155954
1652500615.683454 -3.1496543363492115 -42.08500146995813 -0.0006780306702818817
1652500616.0821679 -3.1495872451853586 -42.08494854625196 -0.0008008576680864563
1652500616.4834344 -3.14960889054257 -42.08501648003916 -0.0008821067954053394
1652500616.8821762 -3.1494484275939243 -42.08474271320551 -0.0009001397100995845
1652500617.2822087 -3.149505364053283 -42.08455525992332 -0.0007800348754151837
1652500617.682163 -3.1495626040700166 -42.08472991745364 -0.0008160297453671528
1652500618.0822022 -3.1495245359876876 -42.085025970795876 -0.000901120983415396
1652500618.8834019 -3.1494966060509597 -42.08503942484072 -0.0006180646051118441
1652500619.2823536 -3.1494363671074623 -42.08495574472485 -0.0005002260957507748
1652500619.6835496 -3.1494885237752506 -42.085000300740305 -0.00036202974905254204
1652500620.0822787 -3.149487346257704 -42.08433639971041 -0.0001910540092418811
1652500620.4835386 -3.1494699332437435 -42.08422764356815 -0.0002172923938047952
1652500620.8822672 -3.149484018348744 -42.084568229604386 -0.0001927092261777008
1652500621.2822952 -3.1493409546174647 -42.08440312140847 -0.00030153519253366817
1652500621.2822952 -3.1493409546174647 -42.08440312140847 -0.00030153519253366817
1652500621.683687 -3.1494841484723572 -42.08436686391481 -0.0002927464858110268
1652500622.0843828 -3.1494921950409562 -42.084386014090725 -0.000374682714512721
1652500622.4843867 -3.149642079739362 -42.084781595464676 -0.0005176611921235696
1652500622.8843913 -3.149633013718379 -42.08479264374161 -0.0005608235382292687
1652500623.2844028 -3.1496300185474873 -42.08501436100067 -0.0005763693487169166
1652500623.6844082 -3.1495326501115244 -42.08480386205783 -0.000669802664657819
1652500624.084408 -3.1495180313007225 -42.0847852713708 -0.0007999792638006403
1652500624.4844275 -3.1493974669073275 -42.084597606407534 -0.0007844450433172265
1652500624.8818913 -3.1494802592794606 -42.08467882073188 -0.0008130500749306824
1652500625.284381 -3.149527555841612 -42.08493512803308 -0.0008227814216070148
1652500625.684422 -3.149463689751059 -42.08461021924711 -0.0008429783684433742
1652500626.484392 -3.1495104076637226 -42.084796078699114 -0.0009338387218944255
1652500626.8844073 -3.1496139388606963 -42.08512661060671 -0.000878543502763042
1652500627.2843924 -3.149585514114605 -42.0853513389449 -0.000725128227978683
1652500627.6843994 -3.149588562572749 -42.08539139942379 -0.0005488859733421628
1652500628.083129 -3.1495751777293464 -42.085161530474785 -0.0004565306455240753
1652500628.4830067 -3.1496114550428196 -42.08537885766664 -0.0004296541544887775
1652500628.4830067 -3.1496114550428196 -42.08537885766664 -0.0004296541544887775
1652500628.882888 -3.1495079537566433 -42.08517923923947 -0.00037534754912400825
1652500629.284035 -3.1495340816905433 -42.08515622010979 -0.00031389128274821737
1652500629.6828954 -3.1495446586129745 -42.0851651155592 -0.00028537415758053686
1652500630.0829206 -3.1495079825873944 -42.085310145264216 -0.0002737873243047542
1652500630.4829242 -3.1495713522548066 -42.085343181414316 -0.00036232691315331994
1652500630.8829272 -3.1495321621030676 -42.08475374178129 -0.0005044578158379942
1652500631.283003 -3.1495769583813846 -42.08515121348568 -0.0005186941014176591
1652500631.682928 -3.1493104498730844 -42.08492968306635 -0.0004994564160522436
1652500632.082913 -3.149341392748518 -42.08506704023854 -0.000548581522238259
1652500632.4829116 -3.149229367861583 -42.0849486777306 -0.0007408336437192339
1652500632.8830464 -3.1494298882887932 -42.08436254036258 -0.0007330513451317619
1652500633.2831535 -3.1495095333166 -42.08423285513381 -0.0006737074571441237
1652500633.6831992 -3.1494740985242053 -42.08418639166046 -0.0008375014371439712
1652500634.08314 -3.1493918812478725 -42.084306316438045 -0.0008814772583990854
1652500634.4831178 -3.1493483094366113 -42.08420063132212 -0.0007643551413581487
1652500634.88299 -3.1493703832667386 -42.08427881721807 -0.0005691349508097909
1652500635.282906 -3.1495224034067775 -42.08452340239414 -0.00048451500380670975
1652500635.6828823 -3.149568516765534 -42.08461890241671 -0.00040926421822500697
1652500635.6828823 -3.149568516765534 -42.08461890241671 -0.00040926421822500697
1652500636.082764 -3.1496399352078157 -42.084782079005954 -0.00023313581775655234
1652500636.4839022 -3.149672488665498 -42.084848786832154 -0.00031145848989942715
1652500636.88272 -3.1495588325972577 -42.08491191370066 -0.0003107649645653354
1652500637.2839148 -3.1495850990501104 -42.084687584754704 -0.0002820556113244943
1652500637.6827114 -3.1495797771544396 -42.084607691113675 -0.00026662839430861146
1652500638.0838964 -3.1495426312550983 -42.08459173801623 -0.00028197020519256377
1652500638.4828305 -3.149484820337303 -42.08484981139652 -0.0003114349798373772
1652500638.8840551 -3.149447667464358 -42.08470309432508 -0.0002579136341792354
1652500639.28399 -3.149425076822549 -42.084816298865306 -0.0003026221292483852
1652500639.683873 -3.1494387250664637 -42.08464345222717 -0.0005753014579120697
1652500640.0825436 -3.149379685102563 -42.08460970388807 -0.0007493445340384375
1652500640.4837303 -3.1494609796103923 -42.08480177715802 -0.0007853571706335494
1652500640.4837303 -3.1494609796103923 -42.08480177715802 -0.0007853571706335494
1652500640.882671 -3.149604293941202 -42.084805774875 -0.0007583164670137629
1652500641.283315 -3.149437311100872 -42.08479433986711 -0.0008336220307228123
1652500641.6832664 -3.1494085823687605 -42.0844152543627 -0.0007374815376557445
1652500642.0832655 -3.149375292160734 -42.083845434215554 -0.0006945747008137645
1652500642.4832876 -3.149370531071419 -42.083705155268 -0.0006118064937185724
1652500642.883347 -3.149402392777791 -42.08390289482733 -0.0005366412492911823
1652500643.2832901 -3.149450582975504 -42.084088708231775 -0.00048779850358962595
1652500643.6844375 -3.149434654857071 -42.0841107016309 -0.0004037018828789568
1652500644.0843918 -3.149537825768295 -42.08418974107613 -0.00028894867244586703
1652500644.483116 -3.149484541178662 -42.08474929286505 -0.0002133398416680199
1652500644.8842394 -3.1494082920312323 -42.08466733330594 -0.00019351326405846886
1652500645.2841675 -3.149533238374783 -42.084985346154674 -0.00018721105847201158
1652500645.6829054 -3.149557919589217 -42.08472084911178 -0.00026891412840031326
1652500645.6829054 -3.149557919589217 -42.08472084911178 -0.00026891412840031326
1652500646.0827796 -3.1494298537560397 -42.08458426722694 -0.00034631470553835725
1652500646.4828143 -3.149495086329246 -42.08462726598787 -0.00030613068762845586
1652500646.8840032 -3.1494750664408073 -42.0847502198581 -0.00037937336687238893
1652500647.2827256 -3.1495688053021382 -42.084980915464755 -0.0006831222002155399
1652500647.6839154 -3.149455659082985 -42.08485261030177 -0.0008819479960302662
1652500648.0827227 -3.149418123401521 -42.08471568127903 -0.0011978034746416288
1652500648.4828928 -3.1494118000625377 -42.08466610025064 -0.0011714290117492351
1652500649.2841644 -3.1495221049345723 -42.08494563296133 -0.0010232015096732563
1652500649.684143 -3.1495158117556024 -42.08478527176714 -0.001089624409194162
1652500650.084314 -3.149496639539997 -42.08481768949697 -0.00101211806112117
1652500650.4831965 -3.1493945334708755 -42.084467054954125 -0.0008530881668553161
1652500650.4831965 -3.1493945334708755 -42.084467054954125 -0.0008530881668553161
1652500650.8842924 -3.149541446762413 -42.0845813856707 -0.0007771359572741818
1652500651.2843947 -3.1495675254727935 -42.08453830859273 -0.0006425209750014482
1652500651.683159 -3.1495181122176277 -42.08467481818186 -0.0005051212480240916
1652500652.0856473 -3.1495097115068376 -42.08453492417855 -0.00045160892768919547
1652500652.4843764 -3.149395481216203 -42.084396906598776 -0.00038345630389844537
1652500652.8855035 -3.1494434308759054 -42.08450219455185 -0.0003886704945584227
1652500653.2830102 -3.1495300825972485 -42.08453269671137 -0.00037115308146399434
1652500653.6841438 -3.1495555626522638 -42.08466073366163 -0.0002703265806662386
1652500654.08412 -3.1495087100493713 -42.084434520251584 -0.0003147487569913343
1652500654.4828236 -3.1495323288996886 -42.0846833296922 -0.0004458847061167767
1652500655.2828526 -3.149494475659722 -42.08418420433227 -0.0007102354499818747
1652500655.2828526 -3.149494475659722 -42.08418420433227 -0.0007102354499818747
1652500655.683892 -3.149435304753478 -42.08411012192132 -0.0009946865653173848
1652500656.0826223 -3.1493802650211897 -42.08419677084192 -0.0010649690471675952
1652500656.4839382 -3.1494658128502593 -42.0843481605659 -0.0010438978266733082
1652500656.8827405 -3.1494807065227626 -42.08433652410782 -0.0009217426233050982
1652500657.2839422 -3.1494849441118653 -42.08466814698138 -0.0009088584742853734
1652500657.6827257 -3.149540508625968 -42.08526570068214 -0.0008888916766966043
1652500658.0840094 -3.1495717404975174 -42.084869784101514 -0.0008044462573791392
1652500658.4828413 -3.149544370554363 -42.085084284259395 -0.0007044176008365113
1652500658.8840554 -3.1495725497485907 -42.08539310657789 -0.0006629895597412491
1652500659.2815416 -3.149554009704577 -42.08501292919356 -0.0005002893559568414
1652500659.6828592 -3.1495290778581086 -42.084562989304494 -0.0003836124746535788
1652500660.0827906 -3.1494380183949993 -42.08451294674863 -0.0002957879981477646
1652500660.4839275 -3.1494299120310885 -42.08460438664858 -0.0003470629366861891
1652500660.88268 -3.149454367797503 -42.08476259294769 -0.00040644382933641143
1652500661.2826738 -3.1495018210350487 -42.08444529349757 -0.0003930190601811531
1652500661.682683 -3.1496205244446287 -42.08486470188497 -0.00031731645393255625
1652500662.0838776 -3.149616277884764 -42.084905431250405 -0.0003202756037088278
1652500662.4826765 -3.149623544086179 -42.084904576279776 -0.00036269876827007413
1652500662.8839288 -3.1496426898112873 -42.085113678877285 -0.0004440650038455146
1652500663.2827048 -3.1494961955069662 -42.084898571689834 -0.0006333061519432012
1652500663.6827788 -3.1494707130301585 -42.08490123713569 -0.000873945402109555
1652500664.082827 -3.1493713416594424 -42.084248225639385 -0.0009114135853934072
1652500664.4828157 -3.1495069476421342 -42.0847261344172 -0.0008072421323603307
1652500664.4828157 -3.1495069476421342 -42.0847261344172 -0.0008072421323603307
1652500664.8829613 -3.1494005741875384 -42.08441609536166 -0.0008091605450174094
1652500665.282922 -3.1493985474328383 -42.08471826563267 -0.0007596785526417099
1652500665.6816487 -3.1494724702460175 -42.08449861245903 -0.0007507258131495276
1652500666.0828934 -3.149448626630278 -42.0848032277406 -0.0007173339712234911
1652500666.8829114 -3.149643997387461 -42.085445492776216 -0.0005942877803607957
1652500667.2828946 -3.1496326789633855 -42.08517515024546 -0.00048726976874550326
1652500667.684046 -3.1496805422303673 -42.085371105397805 -0.0003894276062981414
1652500668.08283 -3.1497209204472263 -42.08574896649848 -0.00038243426071209174
1652500668.482951 -3.1495059400126664 -42.08473666455565 -0.0003939945941857925
1652500668.8828921 -3.149549334855351 -42.084651256731696 -0.0004063630777166108
1652500669.283026 -3.149681875159665 -42.08482754824172 -0.000375076297277753
1652500669.283026 -3.149681875159665 -42.08482754824172 -0.000375076297277753
1652500670.0833895 -3.149636985998093 -42.08465143003766 -0.00041954028999285214
1652500670.4834018 -3.1496193809047988 -42.084482208272995 -0.0005715324919522077
1652500670.8833869 -3.149614819493987 -42.08479459613555 -0.0006756570283809882
1652500671.2833896 -3.1496707480663417 -42.08489884904432 -0.0008388609864360339
1652500671.683402 -3.149629640048772 -42.08502417767474 -0.0009135676001021595
1652500671.683402 -3.149629640048772 -42.08502417767474 -0.0009135676001021595
1652500672.0821867 -3.1496320632715396 -42.08510446393012 -0.0008521955479517535
1652500672.4833786 -3.149741669220372 -42.085142559029386 -0.0006986410330367537
1652500672.8833888 -3.149586823411237 -42.08417378615999 -0.0007219414435814392
1652500673.6834083 -3.149378598184054 -42.08398587260597 -0.0007824632549918997
1652500674.4821544 -3.1494718417675998 -42.08414666529732 -0.0005193008052522888
1652500674.8833025 -3.1496163566238664 -42.08468399230206 -0.0003639764348283975
1652500675.2832625 -3.149641294841409 -42.08550638040029 -0.00035588936468630705
1652500675.6833189 -3.149716354417265 -42.08579989390303 -0.00026910240063419966
1652500676.083246 -3.1496115053581555 -42.085137487882214 -0.0002465938240719945
1652500676.4831748 -3.1495936094585453 -42.08524008271963 -0.0003117746683311898
1652500676.4831748 -3.1495936094585453 -42.08524008271963 -0.0003117746683311898
1652500676.8822079 -3.1497031614918853 -42.08551952063121 -0.00037200004937127523
1652500677.2839148 -3.149596933083103 -42.084635815772714 -0.0004217162949931852
1652500677.682684 -3.149562842713589 -42.0845489953042 -0.0005306214429762687
1652500678.0827115 -3.149546549497156 -42.084450176076274 -0.0005568676377571899
1652500678.4827383 -3.14955877482587 -42.084277700719156 -0.0005815927289196249
1652500678.882712 -3.149574025050356 -42.0842758498012 -0.0007359227864549428
1652500679.6837728 -3.1494924691531594 -42.08512034995074 -0.0006737210138090186
1652500680.483748 -3.149583470223323 -42.08539195961135 -0.0005649774032743457
1652500680.8823693 -3.1495701832931964 -42.085332928882835 -0.0007382765594434182
1652500681.2822464 -3.149655346917765 -42.08523264952768 -0.0008676671492608284
1652500681.2822464 -3.149655346917765 -42.08523264952768 -0.0008676671492608284
1652500682.0831532 -3.1496968788019544 -42.085248255383064 -0.0006811697711304882
1652500682.4818678 -3.1496325044147113 -42.085245512550316 -0.0006050897806210709
1652500682.8829975 -3.149580502572192 -42.08486903268533 -0.0005286979312720819
1652500683.282897 -3.1496108827987896 -42.08493603996992 -0.0005426552767321749
1652500683.6829002 -3.149628321959213 -42.084672556173786 -0.00039249406230439793
1652500684.0827677 -3.1496420095564197 -42.08487237223234 -0.0002836798893096279
1652500684.482703 -3.1495972964071832 -42.084756617833996 -0.0003238061085684349
1652500684.882678 -3.1495628572587293 -42.08479077914059 -0.0002177730800330055
1652500685.2839687 -3.149583558437943 -42.084778422307814 -0.0001709540965341011
1652500685.6826797 -3.1496431157251905 -42.08475150396375 -0.00026456215994240945
1652500686.0826814 -3.1495978449652426 -42.08469615441651 -0.00034935565632036175
1652500686.481505 -3.1496270116048706 -42.0849745682944 -0.0004337064901372978
1652500686.8827386 -3.1495483313384263 -42.08494299354212 -0.0006552932341748544
1652500687.282717 -3.149540466028302 -42.08487326863116 -0.0008512565774915631
1652500687.6826963 -3.149425943487543 -42.084392958379205 -0.0009846855026299714
1652500688.082729 -3.1495096303629246 -42.08477609387269 -0.00087091889967051
1652500688.4838898 -3.149503618121571 -42.0849579562834 -0.0008184089935733482
1652500688.4838898 -3.149503618121571 -42.0849579562834 -0.0008184089935733482
1652500688.882921 -3.1495641846572475 -42.08490077214203 -0.0008666429727352334
1652500689.282298 -3.1494752044665617 -42.08494106088239 -0.0007847452028269322
1652500689.6835434 -3.149555778119783 -42.084760840843465 -0.0008577463508474548
1652500690.0835488 -3.1495205692191277 -42.08453337436644 -0.00083268091445729
1652500690.88355 -3.1494969022371713 -42.084636920456894 -0.0005460465418608909
1652500690.88355 -3.1494969022371713 -42.084636920456894 -0.0005460465418608909
1652500691.6819994 -3.149617280539026 -42.084502719992166 -0.00039747062029350105
1652500692.0831406 -3.1495171200117618 -42.08420206662574 -0.0003730694178865415
1652500692.4831402 -3.1494633993276153 -42.08398675950726 -0.00033631177553496844
1652500692.8818986 -3.1496494876021117 -42.08418730789908 -0.00018436825368845638
1652500693.2831357 -3.149562844416348 -42.084156857698204 -0.00013971520637609536
1652500693.6832004 -3.1494377557036266 -42.084040125427464 -0.00014837905890521114
1652500694.0831614 -3.1495403117863745 -42.084793299061154 -0.00024264080775876495
1652500694.4818926 -3.1496030572394176 -42.084866571690924 -0.0004336130007635622
1652500694.8831594 -3.1495324537068896 -42.08461264751304 -0.0007091386257643759
1652500695.2831602 -3.1495338777630977 -42.08498469935026 -0.0008608585559610957
1652500695.6844234 -3.1495015298162876 -42.0849982904879 -0.0009976434389955616
1652500696.0831642 -3.1495237881622877 -42.08489520057961 -0.0009375816312936283
1652500696.4831343 -3.149585981226412 -42.085139886526456 -0.0008068705849543709
1652500696.8831372 -3.149608748385983 -42.085217769149246 -0.0008742313604020724
1652500697.2831373 -3.1497441559773307 -42.08513202435826 -0.0009209883215494444
1652500697.2831373 -3.1497441559773307 -42.08513202435826 -0.0009209883215494444
1652500698.0839086 -3.149449343971618 -42.085175499825006 -0.0007052134646059541
1652500698.883818 -3.149482077839835 -42.08466874803157 -0.0005848368958836017
1652500699.2838109 -3.1495947567178924 -42.08463609465623 -0.00038221925928935
1652500699.682591 -3.149534660975519 -42.08485425934466 -0.00030925087412050217
1652500700.0826929 -3.1494698967686823 -42.08459981869135 -0.0004194753800470935
1652500700.4826972 -3.1495024534523495 -42.08453583114867 -0.00034701511931325285
1652500700.8826761 -3.149625551840405 -42.0848439800806 -0.0003509455501959774
1652500701.2827547 -3.149595982696983 -42.08505861046864 -0.00038842397946564633
1652500701.682907 -3.149654642943137 -42.08534385498765 -0.0003652640466506457
1652500702.0828795 -3.1496282395847963 -42.08489397132747 -0.0003773191151733163
1652500702.4830575 -3.1496646665764843 -42.08517149201867 -0.0005494427722977299
1652500702.883153 -3.1497553135223626 -42.085211379034796 -0.0007981759463591212
1652500703.2831342 -3.1496161057675245 -42.08449243013006 -0.0008172989334601644
1652500703.6831343 -3.149586549985436 -42.08446545356492 -0.000954048365811512
1652500704.0831604 -3.1495550046466434 -42.08449919000265 -0.0009643127559722034
1652500704.4831796 -3.1496565808450647 -42.084910400103254 -0.0009654062967697011
1652500704.4831796 -3.1496565808450647 -42.084910400103254 -0.0009654062967697011
1652500704.883252 -3.1494855407143056 -42.084497018020066 -0.0008918908781010773
1652500705.2832832 -3.1495992380089106 -42.08506800453345 -0.0007424455449504819
1652500705.6832616 -3.149479289555291 -42.08484005838773 -0.0006786033066748104
1652500706.4832323 -3.149619461096446 -42.08513630871347 -0.0005786646898259945
1652500706.8831284 -3.1495874094056013 -42.085119810101446 -0.000560360820711342
1652500706.8831284 -3.1495874094056013 -42.085119810101446 -0.000560360820711342
1652500707.2816334 -3.1496418711117364 -42.084831993504146 -0.00044968054979857564
1652500707.6828601 -3.1496199702610994 -42.08492512929739 -0.00033492112333862595
1652500708.0828083 -3.1495212716063996 -42.08475508064918 -0.00037353201592942725
1652500708.8815374 -3.149716192035765 -42.08499479962532 -0.0003247517344265455
1652500709.2829895 -3.149697213016019 -42.084473603020896 -0.00037551397235858347
1652500709.6828225 -3.14958455032048 -42.08450635785221 -0.00045744614252463123
1652500710.0828266 -3.1494885142775395 -42.0841247007678 -0.00047101100282382485
1652500710.4828231 -3.1495097131131224 -42.0842932441468 -0.0006393815767651023
1652500710.8828163 -3.1494817661760557 -42.084195612168 -0.000812642005274776
1652500711.2827976 -3.149495714658787 -42.08399270661719 -0.0008907338505078008
1652500711.682782 -3.1496330025682475 -42.08417848254141 -0.0009106574423130287
1652500712.082726 -3.1496214967317933 -42.08435082409909 -0.0009473729688175905
1652500712.483899 -3.149574392800915 -42.08478882943588 -0.0009777266627555917
1652500712.882752 -3.1495624476033584 -42.084800395841896 -0.0007956092879358931
1652500713.2828076 -3.1495596010648725 -42.084820867772464 -0.0007671004929452052
1652500713.6828182 -3.149562638507472 -42.08486085706455 -0.0006757059980392263
1652500714.0828857 -3.1495973468886085 -42.08453499757769 -0.0005840081573021336
1652500714.4828284 -3.149723717271698 -42.08459121409973 -0.000565054815090768
1652500714.8840141 -3.149612832353437 -42.08485532500929 -0.0005294220761419555
1652500715.2829225 -3.1495991379972743 -42.084897154738094 -0.0004906896032582167
1652500716.082814 -3.149654308157956 -42.084981544528404 -0.00044615020958059526
1652500716.082814 -3.149654308157956 -42.084981544528404 -0.00044615020958059526
1652500716.482952 -3.1496390333501374 -42.084983238680024 -0.00047833261076817707
1652500716.8831642 -3.149593278011853 -42.084505385399446 -0.0004442808392538175
1652500717.2831342 -3.149538891052476 -42.0848134236911 -0.0004335601766556757
1652500717.6831598 -3.1495173427294034 -42.084785601907434 -0.0005044825940133044
1652500718.0843813 -3.149409769617705 -42.084817784247974 -0.0005842212287879983
1652500718.4843848 -3.149367109365002 -42.08466146280255 -0.0007201295226761523
1652500718.8843856 -3.149480168263832 -42.0847694654302 -0.0007377896114144217
1652500719.2844663 -3.1494266953797414 -42.084896169954455 -0.0008329752913986063
1652500719.6844027 -3.1495681930293813 -42.08477953297758 -0.0008987237505737461
1652500720.0831413 -3.1495281009627476 -42.084874641454306 -0.0008753932834568018
1652500720.4831214 -3.149623710861256 -42.08511534315576 -0.0009977588623825626
1652500720.8817701 -3.149603518166355 -42.084916517248494 -0.0008066841873965655
1652500720.8817701 -3.149603518166355 -42.084916517248494 -0.0008066841873965655
1652500721.2832022 -3.1496698267647325 -42.084949422568855 -0.0006604345334136827
1652500721.6821525 -3.1496716035146797 -42.08531148831103 -0.0006760996601276187
1652500722.0846498 -3.149691937797197 -42.08541999549719 -0.0005562378335858542
1652500722.4821424 -3.1497497656937945 -42.085162029132306 -0.00039877049296614675
1652500722.882178 -3.1494782649988515 -42.08471976010519 -0.0002725600214758053
1652500723.2821724 -3.1494113552923437 -42.084224101617934 -0.00031236631224520334
1652500723.683408 -3.149414671823333 -42.08436460852868 -0.00031906674818330677
1652500724.083257 -3.1494433245535554 -42.08446202165018 -0.00030818040729771456
1652500724.4832947 -3.1496219107424217 -42.08434123613827 -0.00033735968416202106
1652500724.884508 -3.1494807729413488 -42.08433695190879 -0.0004134055375954043
1652500725.284497 -3.149541599535702 -42.08411873521167 -0.0004505332285234809
1652500725.6831527 -3.149461052656342 -42.08418814386463 -0.0005083629084901772
1652500726.0843759 -3.149545847030481 -42.084339444365135 -0.0006906246274059821
1652500726.4842474 -3.149514604805699 -42.08436287777659 -0.0009400549336119751
1652500726.88412 -3.1494155605995893 -42.08433356832996 -0.0011930886246404246
1652500727.282785 -3.149395221243431 -42.08396358932878 -0.0011108518777343257
1652500727.684018 -3.149489561880845 -42.084134171558766 -0.001023970818310467
1652500728.0828402 -3.149483622230921 -42.084466959184084 -0.0009906072624941767
1652500728.0828402 -3.149483622230921 -42.084466959184084 -0.0009906072624941767
1652500728.4842193 -3.1494876408322376 -42.08447650384828 -0.0010666838835008477
1652500729.2843816 -3.149632523811256 -42.08438985216484 -0.0009269276913398267
1652500730.084375 -3.1495692016867594 -42.08448783190957 -0.0006088332570637414
1652500730.482999 -3.1495883559047826 -42.084435556097255 -0.0003747366089503906
1652500730.482999 -3.1495883559047826 -42.084435556097255 -0.0003747366089503906
1652500730.8841588 -3.1495620297864164 -42.084509037168445 -0.0002914122919182027
1652500731.2841325 -3.149655426857752 -42.0843576386095 -0.00027447548760071994
1652500731.6841486 -3.1495596952225853 -42.08508291069854 -0.000289696175060937
1652500732.0828934 -3.149656931157992 -42.085253065825874 -0.0003198395092583392
1652500732.4841735 -3.1497416495815393 -42.08512268877117 -0.0004009308472625872
1652500732.8829114 -3.1495923703680084 -42.08481748015713 -0.0004094333897724997
1652500733.2841377 -3.149650776272434 -42.08489139459845 -0.00042047424664220373
1652500733.6830366 -3.149731880105154 -42.08489228452262 -0.0004585198971989654
1652500734.0831678 -3.1496080517161857 -42.08508732927223 -0.000518644579236914
1652500734.4832442 -3.1496147352174226 -42.08501600030847 -0.0006736491390128066
1652500735.283282 -3.149749593147046 -42.085252146689804 -0.0009496167905288511
1652500735.683464 -3.149801969713952 -42.08524637373256 -0.0007982116142292994
1652500736.0835536 -3.1495576546460775 -42.08452919465203 -0.0008326822424910285
1652500736.4835513 -3.149569293664019 -42.084155507707194 -0.0008704016221618704
1652500736.8835504 -3.1495559800785813 -42.084207276904316 -0.0009260315174044048
1652500737.283541 -3.149640517321018 -42.084388916546246 -0.0009671561527442099
1652500737.6835759 -3.1496243926716474 -42.08421969988598 -0.0009180054154492925
1652500737.6835759 -3.1496243926716474 -42.08421969988598 -0.0009180054154492925
1652500738.0847793 -3.149552445249345 -42.084358796604846 -0.0007264814326949226
1652500738.4834273 -3.1494787280870717 -42.08426659203858 -0.0005859614716067149
1652500738.8834255 -3.1495507412234502 -42.084258634168634 -0.0004001835803535553
1652500739.284645 -3.149566778704429 -42.084015401632406 -0.0002888070774541632
1652500739.6833773 -3.1496745281937706 -42.08417431012925 -0.0003167474546909507
1652500740.0846293 -3.149788977368406 -42.08388960405385 -0.0004306254172576768
1652500741.2860422 -3.149800804581279 -42.084954973005594 -0.000442489879499533
1652500741.685884 -3.149725012759262 -42.08503391310054 -0.0004959406314846496
1652500742.0857997 -3.1497627782220015 -42.08489863028173 -0.0007335469368286371
1652500742.884622 -3.149671083572663 -42.084143953894774 -0.0009647581372793854
1652500743.2845685 -3.1497533685889465 -42.08417492588778 -0.0009728408253927567
1652500743.684631 -3.1496744685382403 -42.08430463959741 -0.0009019926929989472
1652500744.084601 -3.149676993415614 -42.08442506495623 -0.0009598773818879289
1652500744.4859207 -3.1496851553799914 -42.08448444405077 -0.0010535510149343452
1652500744.8859074 -3.1497399560032875 -42.08468967984682 -0.0009579157798881022
1652500745.283384 -3.1495885146085385 -42.084757242400684 -0.0007516906047595334
1652500745.683424 -3.149573411600958 -42.08468855662017 -0.0006872651568676572
1652500746.0834165 -3.1495294135998044 -42.08431120732244 -0.0005728399968217973
1652500747.2834144 -3.149648722889207 -42.08455954861412 -0.0004062993149072727
1652500748.0833986 -3.1497070147579542 -42.08509636074062 -0.0004499103442903718
1652500748.483418 -3.149669903418861 -42.08483894344259 -0.0003955642734429013
1652500748.883445 -3.149634570961201 -42.084571197614345 -0.0004172785863755593
1652500749.2834303 -3.149544732760859 -42.08457123346305 -0.0004479867614888
1652500749.683385 -3.1495847993639607 -42.084848370581774 -0.0005886583343037641
1652500750.0846412 -3.149598419023981 -42.084786316043456 -0.000751716427582684
1652500750.4833813 -3.1496171313339225 -42.084592987852545 -0.0007705728367238956
1652500750.8846524 -3.149598530696185 -42.08482652278274 -0.0007912475077604467
1652500751.2834957 -3.149732347750618 -42.08494227250292 -0.0007811227496802992
1652500752.0831382 -3.1496933486016303 -42.08467473933299 -0.0010354281911567897
1652500753.2841907 -3.149700351304112 -42.0848151573124 -0.0006625198041826444
1652500753.2841907 -3.149700351304112 -42.0848151573124 -0.0006625198041826444
1652500753.6841245 -3.149740802075325 -42.0850825086432 -0.00042722872627681124
1652500754.0841622 -3.149774926386975 -42.08505857262916 -0.0003840586177516342
1652500754.4829009 -3.149665751057281 -42.08503073912568 -0.0002487062525160025
1652500755.282899 -3.149498749234816 -42.085019187792206 -0.00046444726031097394
1652500755.6830025 -3.149580967676936 -42.08502997945961 -0.0005449244993803379
1652500756.0829504 -3.1496377511852316 -42.08541615342202 -0.0004223744026451495
1652500756.4841201 -3.1497799893657117 -42.0852995109058 -0.00039669505695421464
1652500757.2828822 -3.1497634827117444 -42.085512494349 -0.0006389774891444183
1652500757.2828822 -3.1497634827117444 -42.085512494349 -0.0006389774891444183
1652500757.683076 -3.14960219653965 -42.08546015451705 -0.000725953582651831
1652500758.4832685 -3.1495166611857073 -42.08469474713892 -0.0009264394016746252
1652500758.8832512 -3.149525601220489 -42.084643399689554 -0.0009534598172535463
1652500759.2832344 -3.1495215290761145 -42.08424135911251 -0.0009150845816655387
1652500759.2832344 -3.1495215290761145 -42.08424135911251 -0.0009150845816655387
1652500759.68332 -3.1494953034113173 -42.084224257517285 -0.0008346105539876122
1652500760.4833236 -3.1494492475780795 -42.084521279059516 -0.0008407070008390125
1652500760.8832264 -3.149559798980558 -42.084639682682784 -0.0007940103619323846
1652500761.2832499 -3.1495450730082375 -42.08445019727504 -0.0007265575250526499
1652500761.683268 -3.1496100774779343 -42.084412753002916 -0.0006424209070880829
1652500762.0832245 -3.1496470581568836 -42.084368412414186 -0.0005480350511196594
1652500762.4832478 -3.149623395116695 -42.08423029469275 -0.00042869468969500973
1652500762.8832643 -3.149575334617097 -42.08445721054421 -0.00030380499487243917
1652500763.2832532 -3.1495992123128254 -42.08441425434629 -0.000317669289039417
1652500763.6832113 -3.149600145975576 -42.0843637611003 -0.00040174074515601094
1652500764.0830925 -3.1495920381895246 -42.0844551892758 -0.0004669127696006123
1652500764.0830925 -3.1495920381895246 -42.0844551892758 -0.0004669127696006123
1652500764.4841046 -3.1495415604209676 -42.0842294553244 -0.00042795192035987445
1652500764.8828316 -3.1495877675812984 -42.08473745260094 -0.0004561772077012957
1652500765.682802 -3.149760952555127 -42.08451651537179 -0.000633750818823213
1652500766.0840235 -3.1497897305290365 -42.08454324642157 -0.0008846556871303299
1652500766.484008 -3.1494875703424903 -42.08469799867044 -0.0009578896745627424
1652500766.88327 -3.149579486140805 -42.0842851542646 -0.0009026951460920155
1652500767.283229 -3.149531303645716 -42.08423010960246 -0.0010130865123747501
1652500767.6844978 -3.149471518130653 -42.084438013264936 -0.0011295513556860634
1652500768.0832398 -3.149579260048135 -42.08483856204649 -0.0010187295101632618
1652500768.483285 -3.149636527717405 -42.084510273909125 -0.0007953739742113178
1652500768.883117 -3.1497284399924332 -42.084469814437284 -0.0006907583112406301
1652500769.2829683 -3.1495812129735334 -42.08399331839836 -0.0006757093964726985
1652500769.683012 -3.149502562077082 -42.08433432773473 -0.0006108897914934644
1652500770.0842583 -3.1495301420648936 -42.084683541263004 -0.000486844470990358
1652500770.4842422 -3.1495712912637615 -42.08444750661932 -0.0004171668915739016
1652500770.8842387 -3.149375773666698 -42.084620593046864 -0.0002980639579205427
1652500771.2830107 -3.149463710499788 -42.08459060845356 -0.00023587926570638879
1652500771.6842964 -3.1496016588500204 -42.08475612243595 -0.0003281948269731258
1652500772.082972 -3.149648119454646 -42.08510303660618 -0.0004052908511598813
1652500772.4842458 -3.1497445279343346 -42.0853638545737 -0.0004355104139831534
1652500772.88421 -3.1496776752176707 -42.08488832117551 -0.00046948096812116785
1652500773.2841063 -3.1496769973032244 -42.08528087103046 -0.00046468961754490834
1652500773.2841063 -3.1496769973032244 -42.08528087103046 -0.00046468961754490834
1652500774.084212 -3.1498235185666132 -42.08577731748978 -0.0007789138768413903
1652500774.4840858 -3.1495902575173744 -42.08549150573657 -0.0009402900837734846
1652500774.882759 -3.14971968842147 -42.08584928270692 -0.0009150097689531247
1652500775.2827568 -3.149808672500914 -42.085678290377146 -0.0008570926662325937
1652500775.2827568 -3.149808672500914 -42.085678290377146 -0.0008570926662325937
1652500775.6841862 -3.149686821043783 -42.08555111676278 -0.0008811066433322134
1652500776.0838702 -3.149529225695691 -42.08413979360009 -0.0009903355916927384
1652500776.483831 -3.1495908671893815 -42.084444923540275 -0.0008574837305152863
1652500776.8837805 -3.1496312133014968 -42.084319457576754 -0.0010417009366776517
1652500777.6837447 -3.1496885578355247 -42.0842728446599 -0.0009217159625779722
1652500777.6837447 -3.1496885578355247 -42.0842728446599 -0.0009217159625779722
1652500778.0838084 -3.1495865462358346 -42.08418425493117 -0.0002830990725254598
1652500778.4842436 -3.149506003713345 -42.08473707335421 9.825547888504815e-05
1652500778.882973 -3.149532167508866 -42.08497572370782 0.00019314112092925356
1652500779.2842646 -3.1495841839961933 -42.084738197991605 -5.316095865345871e-05
1652500779.6829972 -3.14956487277324 -42.08486095052546 -0.0002704946345102807
1652500780.0830212 -3.149614202751831 -42.084945850005006 -0.0004007664177126391
1652500780.8841386 -3.149578610933773 -42.08459745657216 -0.0006220922814814331
1652500781.2841496 -3.1495289118923786 -42.084764124588766 -0.0005593231627507161
1652500781.684132 -3.149437743744741 -42.08493533612397 -0.0006486894709001323
1652500782.0841184 -3.1495344150008684 -42.084793443521214 -0.0008519197023428293
1652500782.4829357 -3.1495048512238704 -42.08476641587668 -0.001048646979684438
1652500782.8832307 -3.1495602500797233 -42.08480053842012 -0.0009177576269475685
1652500783.2819703 -3.1495635977838923 -42.085071964202186 -0.000809004570950532
1652500783.6832552 -3.149488631120704 -42.084929505078186 -0.0007606000124633638
1652500784.0832198 -3.149518385050321 -42.08490601379712 -0.000773749821437554
1652500784.4832566 -3.1496168007737104 -42.08497551991138 -0.0006670324483652804
1652500784.8832326 -3.1493927088798728 -42.08432662571791 -0.0005596695421724932
1652500785.284361 -3.149479613912753 -42.084065329643245 -0.00046437736449591455
1652500785.6830015 -3.1496523236171505 -42.08466988459089 -0.0003529979301060207
1652500786.0830052 -3.149555314459125 -42.08444944331518 -0.0002569848664129154
1652500786.4830322 -3.149523547607963 -42.084533495340516 -0.00029801050577891314
1652500786.8829975 -3.149477784863933 -42.08405559065811 -0.0003253998547460349
1652500787.283016 -3.149419223628808 -42.08405215475895 -0.00029320706802277163
1652500787.684354 -3.149460198797364 -42.08425889528916 -0.0002590080534745909
1652500788.0843437 -3.1494652602225273 -42.084127419930496 -0.00035544628800183303
1652500788.4843345 -3.149440265249691 -42.08429117335625 -0.0004455444604594197
1652500788.8829544 -3.1493610240335492 -42.08443095066223 -0.00041785711304650336
1652500789.2841003 -3.1493467413555187 -42.085036131203104 -0.000684602533839701
1652500789.6829011 -3.1495318396055616 -42.08528679613145 -0.0008984170612440431
1652500790.0839603 -3.1496530695006903 -42.085454226527865 -0.0009519697520957229
1652500790.4863265 -3.149886879077794 -42.08543788591144 -0.001011964587353885
1652500790.8862042 -3.149653594474284 -42.08513217426825 -0.0009136622229567945
1652500791.2835844 -3.1493366439784545 -42.08407102436954 -0.0008790766165531275
1652500791.6834707 -3.149336261210962 -42.084191788728 -0.000923795288292846
1652500792.0822172 -3.149484391676772 -42.08385305423505 -0.0009396188264042954
1652500792.4832354 -3.1495450939112963 -42.08433935899202 -0.0008888395359107418
1652500792.883247 -3.149488160252485 -42.084265391834286 -0.0007461426078483047
1652500793.2832456 -3.1495301731486904 -42.084572767728005 -0.0005730597514018512
1652500793.6820023 -3.1495564381716257 -42.084217716448485 -0.0004264811960951534
1652500794.0832448 -3.149602169257367 -42.0848063864221 -0.0003223854148907551
1652500794.4819868 -3.1496470029763692 -42.08445928434795 -0.00019995396309208796
1652500794.8835287 -3.149470413356383 -42.08451940429851 -0.00024240366319487616
1652500795.2822564 -3.149488497091454 -42.084738690093566 -0.00032377701998694
1652500795.6835032 -3.149404223960861 -42.08402362059453 -0.00033414061167336834
1652500796.0834525 -3.149486341746062 -42.08412500415285 -0.00040225772937128174
1652500796.483342 -3.149603458722968 -42.08463495682651 -0.0005665387068731625
1652500796.8819654 -3.1496231978555898 -42.08467291154237 -0.0006528814530600627
1652500796.8819654 -3.1496231978555898 -42.08467291154237 -0.0006528814530600627
1652500797.6830187 -3.1494182610597186 -42.084494617876175 -0.0007982578533281826
1652500798.4830425 -3.149549467299039 -42.08446965065838 -0.0009335672088268271
1652500798.8830156 -3.149592924740581 -42.08477679782925 -0.0008380161672902828
1652500799.2829936 -3.1495636799262776 -42.08498126239241 -0.0009515570023956657
1652500799.6834893 -3.149567424306806 -42.08451791306875 -0.0009687188104078731
1652500800.083485 -3.1495766851924074 -42.084698068140156 -0.0009001187392141397
1652500800.4834642 -3.149697884896085 -42.0849762819123 -0.0008564843580557216
1652500800.8821006 -3.1496700051504547 -42.08514051945221 -0.0007608018065989458
1652500801.2833517 -3.1496803334876446 -42.08517981204036 -0.0005231201630759227
1652500801.6834106 -3.1496081254414854 -42.08510754788669 -0.00040090082379803244
1652500801.6834106 -3.1496081254414854 -42.08510754788669 -0.00040090082379803244
1652500802.083935 -3.1496801490948556 -42.08485796005706 -0.0003429185956031894
1652500802.4832852 -3.149664886112536 -42.08485972996117 -0.0002844037484367387
1652500802.8832629 -3.14958725295773 -42.08492885209753 -0.0002932284588175599
1652500803.6830757 -3.149735290431888 -42.08481144843421 -0.0003940869329464372
1652500804.08298 -3.1498296267444026 -42.08511270134136 -0.0004850487924148647
1652500804.4829824 -3.1496238689178533 -42.08452200874933 -0.0005093954654414382
1652500804.8829849 -3.1496034063845784 -42.08461487606463 -0.0005197106167472848
1652500805.2829816 -3.149518484191532 -42.084815421558055 -0.00078683907870776
1652500805.6829798 -3.1494876835522447 -42.08473821578504 -0.000984986595673601
1652500806.0829763 -3.1495423350098335 -42.08477228999917 -0.0010076969532127195
1652500806.4829535 -3.1495098664361976 -42.08448417970217 -0.0009306486287189442
1652500806.8829036 -3.1494983266928465 -42.08476728249102 -0.0008965099256779893
1652500807.2829115 -3.1494617524669835 -42.08532487179169 -0.0009138002626938105
1652500807.6829884 -3.1494826871568407 -42.08488985703476 -0.0008359030121065647
1652500808.0830142 -3.1495747170627055 -42.084889637406235 -0.0007320518878407012
1652500808.4843595 -3.1495694111912194 -42.08494056448683 -0.0007174655265023977
1652500809.6829498 -3.149431500799775 -42.08440288303067 -0.0004156485376650143
1652500810.0841215 -3.149501207772861 -42.084354879189036 -0.00029127586462746047
1652500810.482901 -3.1494552391554684 -42.08443051497286 -0.0002774359404317042
1652500811.2829225 -3.149661028979505 -42.08491045641787 -0.0003137027370773357
1652500811.682893 -3.149641132322216 -42.08520440862205 -0.00046242660973654787
1652500812.0829012 -3.149684373591814 -42.085189494804084 -0.00043535667527666577
1652500812.484158 -3.1497223209264114 -42.085356301624074 -0.0004267239580665119
1652500812.484158 -3.1497223209264114 -42.085356301624074 -0.0004267239580665119
1652500812.8840091 -3.1497573723370387 -42.08528182811796 -0.0005202900221666709
1652500813.2828262 -3.1496581517882483 -42.08506144797091 -0.0006451672127388355
1652500814.082929 -3.1495049211028316 -42.08502830471686 -0.0007577597840302194
1652500814.4829357 -3.1496279846362825 -42.08507478901671 -0.0007878038488367961
1652500814.4829357 -3.1496279846362825 -42.08507478901671 -0.0007878038488367961
1652500814.88431 -3.149641407664557 -42.08506320971357 -0.0007914529919000393
1652500815.68494 -3.1496240182186312 -42.08521604249552 -0.0008808148154440185
1652500816.0823233 -3.1496838351226693 -42.08526976742387 -0.0007799300032914763
1652500816.483452 -3.1496698725051893 -42.0853418689479 -0.0006812450713272605
1652500816.884594 -3.1496319820360803 -42.08506445312423 -0.0005800688369200779
1652500816.884594 -3.1496319820360803 -42.08506445312423 -0.0005800688369200779
1652500817.2833447 -3.149610958544148 -42.084956271488174 -0.0004095518775638768
1652500817.6830082 -3.149484733597923 -42.08419566275262 -0.0003620885788197595
1652500818.0829773 -3.1497294170693095 -42.08479199995609 -0.00037505277430573136
1652500818.4829907 -3.1496498680772547 -42.084831079733604 -0.00046430940186728553
1652500818.883017 -3.1496428663983664 -42.0848016402854 -0.000509632392586723
1652500819.6830952 -3.149671912295023 -42.08440595357403 -0.00044347642280597593
1652500820.0828943 -3.1496986423908986 -42.08434256472696 -0.00043903831604642785
1652500820.4853346 -3.1495944753652125 -42.08466628083232 -0.00042393573943912133
1652500820.8840187 -3.14953779833073 -42.0845619703799 -0.0004260353723881047
1652500821.2839546 -3.1495500954748046 -42.084671134213515 -0.0005980134461811837
1652500821.6838531 -3.1495800794539868 -42.08472810093462 -0.0006375622922194651
1652500822.083975 -3.1495529513952363 -42.084409032887294 -0.0007535864674986792
1652500822.483992 -3.14930338915012 -42.08413527901144 -0.0007313803306770311
1652500822.884143 -3.1495030558891592 -42.08475689468669 -0.0006536678548503955
1652500823.2841032 -3.149323389821003 -42.08425389728893 -0.0005998275025926036
1652500823.6853564 -3.149470698835003 -42.08450898882096 -0.0006183466866435741
1652500824.0842233 -3.1496978664204995 -42.08432258901587 -0.00036441655965389896
1652500824.8841162 -3.1496295455401295 -42.084461216012635 -0.0002423758415233332
1652500825.2853513 -3.149650764991076 -42.08462988955281 -0.0002556847149220304
1652500825.6829116 -3.149679386954279 -42.08470735678407 -3.4862029025792274e-05
1652500826.0841393 -3.149640588341015 -42.08436962945108 2.7593555920420176e-05
1652500826.0841393 -3.149640588341015 -42.08436962945108 2.7593555920420176e-05
1652500826.4843235 -3.1495973012895213 -42.084495215585356 -3.467570978086393e-05
1652500826.8849916 -3.14954528030281 -42.08411861431283 -0.00010384171317592145
1652500827.283771 -3.149470842577202 -42.0842879660961 -0.00016394905175873276
1652500827.6837807 -3.1494717513773303 -42.08397587886659 -0.00019002075008323072
1652500828.0849884 -3.149373745457101 -42.08404720643683 -0.0003056311129725209
1652500828.483766 -3.1495289714527637 -42.08415041062889 -0.00037741630611221044
1652500828.8851228 -3.1495506689668034 -42.08423842537032 -0.000506222484473802
1652500829.2838492 -3.149376620601565 -42.08454979535234 -0.0006022773850001689
1652500829.6839778 -3.1494908919888864 -42.085080234366046 -0.0007204987082699982
1652500830.0840762 -3.1494836745290407 -42.08485945189984 -0.0009565632170241076
1652500830.4840071 -3.1496674247870047 -42.084999990420165 -0.0006831511556312647
1652500830.8840053 -3.149761572249588 -42.08548248780603 -0.0006762553967233353
1652500831.2853494 -3.1496860805785083 -42.085662088129936 -0.0006581107021308291
1652500831.6854076 -3.1497368490752287 -42.08585769121358 -0.000589526123119806
1652500832.0840976 -3.1498042046031003 -42.08601102889277 -0.0006876776993618439
1652500832.4853315 -3.149631517636596 -42.08590977578342 -0.000636368654346936
1652500832.8839617 -3.14965342121949 -42.08505208329892 -0.0004513291660422497
1652500833.2852404 -3.1495286025304914 -42.08503582436337 -0.0006114828695076013
1652500833.2852404 -3.1495286025304914 -42.08503582436337 -0.0006114828695076013
1652500833.6851687 -3.1494569980891036 -42.08516488776033 -0.00033729438335450973
1652500834.0863836 -3.1494270990310014 -42.085258933814366 -0.00021156216946546097
1652500834.4851341 -3.1493447178345413 -42.084946160921675 -0.00024859418056941834
1652500834.8851287 -3.1494456945172224 -42.084783660329926 -0.0004496145531524137
1652500835.2851124 -3.149603918163944 -42.08503755650791 -0.0004271733066210093
1652500835.6850905 -3.149640079987872 -42.08521465091793 -0.00039148587660011586
1652500836.0850968 -3.1496929194643997 -42.08512811937369 -0.00047334096896051864
1652500836.4862132 -3.1497435092737156 -42.085021652648095 -0.0006275905159013953
1652500836.886096 -3.149756702988739 -42.08506033804434 -0.0007219795737214776
1652500837.2849169 -3.149589230522132 -42.085260216465926 -0.0008808476378026758
1652500837.6849253 -3.1494309065990436 -42.08522763057016 -0.0010117260851810542
1652500838.0848966 -3.1495237234557116 -42.085378174597764 -0.001021374807088131
1652500838.0848966 -3.1495237234557116 -42.085378174597764 -0.001021374807088131
1652500838.4847612 -3.149562093082494 -42.08531349817789 -0.000989141728954028
1652500838.8835895 -3.1494846408519876 -42.085443025405844 -0.0009446237484105405
1652500839.2835019 -3.149630906757263 -42.085577678438725 -0.0007260564154806595
1652500839.6835587 -3.149642671514073 -42.08511356115295 -0.0005845000781335916
1652500840.0847867 -3.1495856942488594 -42.08477788277333 -0.0005227707252188421
1652500840.4847896 -3.149653915596616 -42.084468407244344 -0.0003901324658394517
1652500840.883623 -3.149567588699739 -42.08466943227013 -0.00028130678160199346
1652500841.2836084 -3.149625032832809 -42.084662944327604 -0.00029740020223162356
1652500841.6848288 -3.1494401478629186 -42.08449262168282 -0.0002467659750167231
1652500842.0848413 -3.149344908928743 -42.08476492611499 -0.000335483103025537
1652500842.4834635 -3.149632816093895 -42.08534623969954 -0.00045376705687245195
1652500842.8846507 -3.14978562542003 -42.08523845659181 -0.0004427251781303626
1652500843.2848547 -3.1497046239207904 -42.08514700028197 -0.00038704911641678635
1652500843.6848936 -3.1495419985588065 -42.08537674168523 -0.00028920741783008963
1652500844.0836356 -3.14954170007751 -42.08527609819227 -0.0003410553955449716
1652500844.4849029 -3.1495201781533737 -42.084634340220575 -0.0004955790514182615
1652500844.8836346 -3.1496321494217696 -42.08475235523461 -0.0007158522431535488
1652500845.2849932 -3.14964409123586 -42.08511317413484 -0.0008492787588654238
