1652452743.3553991 -13.546600601560407 84.68306109775921 -0.02720426465037823
1652452743.7554166 -13.016363551080516 84.3797427945718 -0.02833685278571091
1652452744.1553986 -12.521144504066882 84.06256668472292 -0.03806781625318306
1652452744.555397 -12.071490972020989 83.7812501319179 -0.04819432849531491
1652452744.9553747 -11.668519764717132 83.5708374290659 -0.05725235520406852
1652452745.3555284 -11.126350352579635 83.36227019623638 -0.07401864075368536
1652452745.7556133 -10.543084549847144 83.13306835082085 -0.08644214456533333
1652452746.1556125 -9.961149934935754 82.9589307320916 -0.10106334648233639
1652452746.554409 -9.387497383338548 82.81367933715823 -0.13657232417240273
1652452746.9556704 -8.904108650906736 82.67442331768216 -0.1916630021901125
1652452746.9556704 -8.904108650906736 82.67442331768216 -0.1916630021901125
1652452747.354392 -8.464241762897679 82.68036873706745 -0.2561243635921206
1652452747.7543812 -7.938052737476646 82.83973530930287 -0.24756456709550484
1652452748.1556926 -7.356252373232586 83.08691029788099 -0.19868657799140932
1652452748.554418 -6.821519531839627 83.35361041906293 -0.2099489615618228
1652452748.9553697 -6.289581512897392 83.61098952789692 -0.22256112400929573
1652452749.3554366 -5.731329251527143 83.83726621273134 -0.23134770925780407
1652452749.7553704 -5.204678655074247 84.06557155833313 -0.23837696993270407
1652452750.1541693 -4.676642224696394 84.3204774881788 -0.2437838352520848
1652452750.555364 -4.140361160904149 84.57217023434818 -0.22972261376286263
1652452750.9541838 -3.6135808942992327 84.82607607238096 -0.22878429545599138
1652452751.3553536 -3.082248948891305 85.09535991614818 -0.22503988913322015
1652452751.755236 -2.5504161318635283 85.36641082848934 -0.21800026780792925
1652452751.755236 -2.5504161318635283 85.36641082848934 -0.21800026780792925
1652452752.1552343 -2.020556262981252 85.63971015430675 -0.21071798121750934
1652452752.5553982 -1.4979708481415344 85.92288044067331 -0.20773362376051602
1652452752.9553816 -0.9779070857087078 86.18624307339357 -0.2054888279596122
1652452753.3554437 -0.4273302870962965 86.43768228733848 -0.19828970245573835
1652452753.7553842 0.131049957929406 86.68747844230283 -0.19211329713106423
1652452754.155379 0.6643781885868378 86.91871127274732 -0.19183651220285092
1652452754.9553783 1.801254411890639 87.41667821509026 -0.18480193916991472
1652452756.556258 3.891717183360498 88.24973293268468 -0.22221373519365428
1652452756.9562428 4.444876288199019 88.45536282870798 -0.22654771327064432
1652452757.3562582 4.988644137746121 88.67330967616866 -0.23159789573214784
1652452757.75625 5.54315127011651 88.89418092050519 -0.22926095366293436
1652452758.156225 6.069779617411584 89.11425772492387 -0.2261433806800885
1652452758.5561347 6.596338944785209 89.2969513583938 -0.22483169228891292
1652452758.5561347 6.596338944785209 89.2969513583938 -0.22483169228891292
1652452758.9561136 7.1317220773066055 89.49771741231422 -0.21514062739074968
1652452759.3560934 7.7031416320024135 89.68970758187552 -0.18706798632729366
1652452759.7560208 8.286470831997512 89.88805258564132 -0.16190111788680384
1652452760.1559894 8.843253973011265 90.08086368167062 -0.1503741507934409
1652452760.5559847 9.348534348057854 90.33196389821558 -0.14513300688297054
1652452760.95602 9.89927990506878 90.60146931279479 -0.12048408345936695
1652452762.1560078 11.402258089545278 91.48988068211013 -0.10701406329163954
1652452762.5560148 11.861348397856318 91.82698833389097 -0.08745821411952226
1652452762.9560597 12.321264078987113 92.1675589807791 -0.05869380288343512
1652452763.3560212 12.768307164260762 92.55504199779296 -0.031986576831809166
1652452763.3560212 12.768307164260762 92.55504199779296 -0.031986576831809166
1652452763.756034 13.221740563076395 92.88921031620605 0.0026453232370129975
1652452764.156014 13.655206494964041 93.1856321119332 0.007865815591113101
1652452764.9560425 14.68675764601008 93.80565076090545 0.060656909589871355
1652452765.356043 15.16040068507629 94.10794560768406 0.06043098719256618
1652452765.756042 15.613589910266839 94.47413107828069 0.08347378492662233
1652452766.1548064 16.052600143777987 94.9053849258571 0.11895865678788023
1652452766.5547802 16.473732308616718 95.3494416637345 0.139190224267794
1652452766.9559991 16.89617075968463 95.8206659730962 0.15051437770085294
1652452767.754718 17.68736743001648 96.7257114384789 0.14384021114368428
1652452768.1558464 18.058087996415665 97.11962190363127 0.13698050501027872
1652452768.1558464 18.058087996415665 97.11962190363127 0.13698050501027872
1652452768.555756 18.44299156978508 97.49975549227909 0.15961001734178057
1652452768.9557273 18.81387431015618 97.88259039002882 0.19244943000406323
1652452769.3556283 19.185970678173092 98.25429846527624 0.20801666577563682
1652452769.755644 19.55784439801483 98.6251247860983 0.21255365796440134
1652452770.1569037 19.95119451288199 98.96114200666892 0.23842435435544146
1652452770.5569031 20.212891372535253 99.18498247897031 0.26072456329743215
1652452770.9568968 20.42548932877741 99.410722387439 0.26802508735243125
1652452771.356848 20.621851994935554 99.6389201693977 0.27181189118007265
1652452771.75672 20.770296484507128 99.87248478247022 0.27615588209398473
1652452772.1553922 20.887562630270416 100.12282452354512 0.2799417706039359
1652452772.5565872 20.952482590782594 100.44832657620466 0.27873920395377394
1652452772.9566617 20.771920513155692 100.9561724318475 0.27105957979009443
1652452775.754433 17.37738304348077 103.10880723975114 0.20025042197248555
1652452776.5556471 16.179785306289695 103.29524241452475 0.13887637743718753
1652452776.9556186 15.59192392551924 103.36025967195675 0.13208891412390386
1652452776.9556186 15.59192392551924 103.36025967195675 0.13208891412390386
1652452777.355641 15.010102149860039 103.39259720457058 0.11880625121129695
1652452778.5549881 13.204800385441189 103.38186707638191 0.12310467070016484
1652452778.9550374 12.607245524635914 103.39015533932806 0.11967096715604192
1652452779.3550422 11.985892146389688 103.38657256985965 0.12318243497283402
1652452779.7575278 11.437141428557368 103.3708183600888 0.11880451258165839
1652452780.1563144 10.841468313040906 103.37998422704604 0.11590357077755142
1652452780.5537412 10.228534410579165 103.37063437376261 0.12904601042886601
1652452780.9537213 9.660500723248212 103.33630443636017 0.13404417243036304
1652452781.3536026 9.0798438125723 103.31756316077394 0.1349359383587341
1652452781.7536182 8.508056071336995 103.32489064448866 0.1394889733452424
1652452781.7536182 8.508056071336995 103.32489064448866 0.1394889733452424
1652452782.1538935 7.91138124404462 103.34225301777172 0.1426194950630899
1652452782.5545347 7.300605305031937 103.35131705170947 0.1461671181515424
1652452782.9545114 6.697341456604811 103.39882564505136 0.14613662680236578
1652452783.3545392 6.101395449182391 103.46093595111114 0.14201685890420612
1652452783.7545006 5.511298090750564 103.53583179240724 0.13690169376386352
1652452784.5546496 4.317303088693869 103.71001590078865 0.12490832013871764
1652452784.9533587 3.7320409101871945 103.8124653706897 0.11538583649049672
1652452785.3545284 3.1451562192824625 103.88470451855298 0.10832919367985674
1652452786.153379 1.9588585304162862 104.03411412849545 0.09892048000707457
1652452786.553376 1.4040717948175399 104.1026332497182 0.08494401284222525
1652452786.954601 0.8383795392802469 104.18192475663992 0.0796667565394461
1652452787.353375 0.25761533608930876 104.25841578473907 0.08746159940248599
1652452787.7533937 -0.3326332617224921 104.33311451727172 0.09898125865421262
1652452788.154596 -0.9684444642290231 104.37082288461806 0.11196396789969465
1652452788.5546107 -1.5816913414083231 104.38845968822258 0.1189911129534591
1652452788.9546044 -2.187369179374251 104.37464181024225 0.10623599619293952
1652452789.355868 -2.787195168838238 104.32704296878713 0.08899177697046123
1652452789.7546492 -3.349169242351806 104.31261304930204 0.06718112185577996
1652452790.1546533 -3.905161158676208 104.33292101536426 0.04911941895640548
1652452790.55464 -4.503761387794491 104.34475881609714 0.051394138069060236
1652452790.9546583 -5.082895338876867 104.36886795856759 0.05964549545552322
1652452791.3545957 -5.692089036089278 104.38752048379632 0.06416565659961138
1652452792.1546273 -6.888913779745302 104.41273006523112 0.06992668082060133
1652452792.9545858 -8.116073643110234 104.42749601664747 0.06007697683621793
1652452793.3546395 -8.712622812089656 104.4275651176268 0.05013220366078197
1652452793.3546395 -8.712622812089656 104.4275651176268 0.05013220366078197
1652452793.7547762 -9.301402699369511 104.44376487104039 0.03554642102409039
1652452794.1547484 -9.866617170227471 104.4513434720883 0.024045646744907223
1652452794.5547638 -10.408652657363291 104.46570872054181 0.014818146113820596
1652452794.9547682 -10.963198971781082 104.46871963227791 0.018242120984062027
1652452795.3547854 -11.550097410728128 104.47427540948682 0.04086784674335109
1652452796.154902 -12.767162589027855 104.50050336159791 0.09233682532139484
1652452796.5549264 -13.365899599431387 104.5403613412812 0.10383461649662182
1652452796.9536111 -13.94817629177247 104.59444948007682 0.10435020347979643
1652452797.3549483 -14.483648958710162 104.69929828229117 0.1016741336705799
1652452799.3553452 -17.06898071813528 104.01202713634567 0.0776995528018643
1652452801.3547904 -18.339081279077433 101.87135900155974 -0.003813298551219091
1652452801.7547836 -18.22724666797643 101.28009506234632 0.024549668434225347
1652452802.1547184 -18.1329771906739 100.69116171256466 0.021172620068474535
1652452802.5546184 -17.91060584579941 100.19829658927551 -0.010831313887646687
1652452802.9546092 -17.479869831199593 99.6986375990864 -0.008259285972102182
1652452803.3544836 -17.02216302599834 99.31200313341161 -0.01738997302893175
1652452804.5555968 -15.479170783129739 98.65809391731153 -0.030515410674192445
1652452804.9543488 -14.865814098009388 98.56657551543034 0.007540762872255025
1652452804.9543488 -14.865814098009388 98.56657551543034 0.007540762872255025
1652452806.1543763 -13.07457696977994 98.17008039504941 0.06190324383654583
1652452806.5543706 -12.470405558668816 98.02562303235227 0.07007619272926391
1652452806.954363 -11.88776556731289 97.8749514555776 0.0703670436283767
1652452806.954363 -11.88776556731289 97.8749514555776 0.0703670436283767
1652452807.3545465 -11.332354805466942 97.7089261427698 0.05942069390070648
1652452807.7537272 -10.824650787708741 97.42079250999569 0.02119214746164244
1652452808.1539598 -10.366270083581071 97.09835409788991 -0.019102955879035433
1652452808.9539452 -9.508853459105133 96.31036530277566 -0.030855538171366992
1652452809.7541826 -8.776708121813456 95.45018133939749 -0.030402691639077495
1652452810.15421 -8.441954789746063 94.9423863168123 -0.009186832191948657
1652452810.5541508 -8.079059827877934 94.45601679612382 0.0020258014554345727
1652452811.354181 -7.358126177689812 93.46285566261128 -0.0026306331325759436
1652452811.7541814 -7.001840400332711 92.97095594010364 -0.01938749994448946
1652452811.7541814 -7.001840400332711 92.97095594010364 -0.01938749994448946
1652452812.1541111 -6.6518340899298 92.46771198383703 -0.027367514719343844
1652452812.9552307 -5.967742650386924 91.4465588670418 -0.05918003895146168
1652452813.7541764 -5.3351600934180325 90.43636823423576 -0.09590513300662873
1652452814.1543362 -5.003022929850779 89.9465698457353 -0.11168787233066696
1652452814.5535116 -4.671571153459595 89.4756281338772 -0.1322302671886179
1652452814.9535117 -4.338911610264212 89.0047262476873 -0.13760950163130697
1652452815.3535001 -4.009567430134538 88.51176738364116 -0.14071813708780895
1652452815.7534895 -3.6833383978577316 88.00756163118545 -0.13878973025050828
1652452816.1547956 -3.3456067760464308 87.51510521057436 -0.14756777908447216
1652452816.5547702 -3.0139489819181335 86.99050799824968 -0.1490466592012789
1652452816.9547715 -2.6804565944457366 86.48960433672886 -0.16835291888943893
1652452817.3547277 -2.3551276106569716 85.96081834836687 -0.18507172713841458
1652452817.7546124 -2.0305484137656435 85.42956066794235 -0.207047988754338
1652452818.1546438 -1.7092129583511877 84.91243329043128 -0.2374359195059439
1652452818.5546148 -1.4020314138713417 84.4181727424305 -0.2673741814526106
1652452818.5546148 -1.4020314138713417 84.4181727424305 -0.2673741814526106
1652452818.9546175 -1.0866734275373204 83.9091304295579 -0.28871941791970884
1652452819.754634 -0.4441053827556587 82.8556191352229 -0.32253895262161153
1652452820.1547363 -0.13726105364909102 82.32146861102285 -0.3467281208987451
1652452820.5547838 0.1482184425247013 81.83053953872418 -0.3916245131254953
1652452820.9536252 0.4348473117576219 81.32147425855783 -0.41357540019173233
1652452821.354903 0.7123985829118453 80.80912494767719 -0.42632064431464456
1652452821.7549222 0.970937868742233 80.295487756655 -0.4429531720033425
1652452822.1549592 1.2776716455954968 79.78832114113072 -0.44281861376621257
1652452822.5561147 1.6177773443496193 79.30529202833 -0.45157105259197394
1652452822.956141 1.9585543961642315 78.8386683239972 -0.4623460517566897
1652452823.3549073 2.304099519419694 78.37720241514823 -0.4696213206490677
1652452824.1536405 3.00229944560558 77.42282901097559 -0.4657894446137911
1652452824.9548721 3.669902609778731 76.50181439208728 -0.46396098855879137
1652452825.3561947 4.021076293983441 76.03516093118566 -0.45537739226872936
1652452825.3561947 4.021076293983441 76.03516093118566 -0.45537739226872936
1652452825.757376 4.376356515816347 75.59493155595834 -0.44300480813589854
1652452826.1561134 4.733996419167632 75.15009158143349 -0.4281957118652944
1652452826.5561063 5.099460120333788 74.69873764374543 -0.40594668995815936
1652452826.9548597 5.444788043820459 74.24560530647257 -0.3845305889570114
1652452827.3548584 5.805753901676063 73.7770711843204 -0.35569430631754184
1652452827.754855 6.161606357869751 73.31647615654737 -0.32675738043417046
1652452828.1549165 6.52583154680287 72.85701133363669 -0.292386531585804
1652452828.554904 6.889329265925561 72.4063491678913 -0.268792438157534
1652452829.3548918 7.623587535292195 71.47160407198675 -0.21126168544460366
1652452829.7548954 7.985658672770555 70.97565402900145 -0.18154535952484596
1652452830.1548994 8.353524673666612 70.49555064308157 -0.1657285677283391
1652452830.1548994 8.353524673666612 70.49555064308157 -0.1657285677283391
1652452830.5536652 8.724382994278159 70.00595694472973 -0.15375975416229754
1652452830.9536197 9.115102661394673 69.51029538634418 -0.13606856118347221
1652452831.75364 9.829774501871015 68.53837347022584 -0.14669153683414277
1652452832.5536456 10.54556700723763 67.59318362539192 -0.13947164373192833
1652452832.9536083 10.907332975510759 67.12836183343097 -0.13418062256479607
1652452833.3536353 11.270290694603105 66.66810608472407 -0.12133294866998673
1652452833.753633 11.624658668583333 66.17310792126077 -0.1080975657271856
1652452834.1536293 11.987719153521248 65.67141913721744 -0.09393855301742021
1652452834.55364 12.342288521168818 65.18629277555901 -0.08705443957634584
1652452834.9536433 12.686793584449 64.69535513216726 -0.08809173176371249
1652452835.353621 13.058474261091433 64.18065698671197 -0.08045890766825514
1652452835.7535913 13.401051285984348 63.69188228904379 -0.08400955366843316
1652452836.1536586 13.749225116623695 63.1975439565053 -0.09221138521664751
1652452836.9536543 14.44225186810067 62.22478615131013 -0.09798799123871182
1652452837.3536487 14.797962096806128 61.723190763536465 -0.10088678253145972
1652452837.7536511 15.148821747443463 61.22150689875886 -0.1018892112219062
1652452838.1536393 15.456243633125677 60.74808531111729 -0.11084286657140818
1652452838.5536656 15.762018363292533 60.27269027982725 -0.12317703072465797
1652452838.953634 16.07525114379582 59.782758145146566 -0.116752891346732
1652452839.3536217 16.378773430326344 59.27668668605397 -0.10519394828000128
1652452839.7536163 16.654699801288775 58.794934977614666 -0.09335048173625882
1652452840.1536272 16.944394443023672 58.34620891156484 -0.08981961374210684
1652452840.9548929 17.589863405635366 57.42425848567754 -0.007796948962728867
1652452841.3536463 17.964351737070874 56.94881754556559 0.04205365770995284
1652452841.3536463 17.964351737070874 56.94881754556559 0.04205365770995284
1652452841.7536342 18.342060004476963 56.51802054536223 0.07743019418615615
1652452842.9553628 19.64889149910579 55.00332238979445 0.17022449175162124
1652452843.355352 19.848003056964586 54.70133200362115 0.1699933085801044
1652452843.7549412 20.111777857678696 54.277634622536155 0.17122689018268517
1652452844.1548996 20.33295980847982 53.84161021303679 0.1712506721536314
1652452844.553641 20.464253639628797 53.32819598069128 0.1715129349675074
1652452844.9536262 20.577208155227893 52.73244174790207 0.17430603269494618
1652452845.354924 20.674214605058157 52.14048492461547 0.1730533306969972
1652452847.7547405 20.185147316318396 48.69074333229673 0.16720658043538952
1652452848.154745 19.935628662725712 48.20051504905683 0.16398204371707248
1652452850.1569 17.572151388838016 46.700233351834186 -0.011735057400908244
1652452850.5556307 17.03002816946085 46.62523741776219 -0.04012886330408738
1652452850.9556165 16.444626263292868 46.70186541911791 -0.03456933469679191
1652452851.3556716 15.871185585079846 46.83696409109124 -0.04388368911121732
1652452851.7556348 15.348116455494885 46.97475202405384 -0.060936113312039575
1652452852.1556103 14.837294412901443 47.05689434364446 -0.06645959392783046
1652452852.5556078 14.30424680346535 47.14405431445677 -0.07198614430844319
1652452852.9555836 13.757145347727082 47.191762485287484 -0.09174689958420301
1652452853.3556812 13.182392511164604 47.28731753939229 -0.1176277386221472
1652452853.3556812 13.182392511164604 47.28731753939229 -0.1176277386221472
1652452853.7544224 12.603448760773166 47.34481435800227 -0.13325716642265084
1652452854.1556423 12.041929165202234 47.379219110543794 -0.13793517424139573
1652452854.5556052 11.439987865704264 47.393775205699626 -0.13704558475067707
1652452855.355602 10.234368178055782 47.47267799234734 -0.1423137636793455
1652452856.1556337 9.152539696396424 47.582218121863555 -0.16282080240233693
1652452856.5543768 8.581935472530354 47.6449318248958 -0.1446908002752475
1652452856.9556587 7.992886601087502 47.71727998410927 -0.11465021648475893
1652452857.3556232 7.388814646882025 47.8005309974957 -0.09308624887807976
1652452858.155677 6.206648747435949 47.99020129455427 -0.08851753451371136
1652452858.155677 6.206648747435949 47.99020129455427 -0.08851753451371136
1652452858.5557778 5.6299914300788 48.08285488273877 -0.08699378124538948
1652452858.9557312 5.228157425214885 48.16236223888537 -0.08146891313313331
1652452859.3557425 4.891962434981 48.23135021680068 -0.08509900585151908
1652452859.7557473 4.527824100777753 48.29944356433158 -0.09143512090362216
1652452860.1544797 4.311718728600052 48.3376564585538 -0.09112773473864627
1652452860.5556188 4.342593139528038 48.33412694499596 -0.09572800772595419
1652452861.3556235 4.330635591816787 48.33393137902314 -0.09860171313610638
1652452861.7543404 4.3314693539340965 48.33323350835764 -0.09887821123777923
1652452862.5553422 4.331735679655651 48.33365913063966 -0.09924104563927283
1652452863.354085 4.331817914334454 48.333585677443 -0.09947602135958417
1652452863.7552378 4.332144802683338 48.3336634335255 -0.09947705983461669
1652452864.155235 4.332166929197889 48.33360928511611 -0.09956695534945148
1652452864.555245 4.332138445779069 48.333492517706006 -0.09950785718155669
1652452864.9540522 4.332117465425192 48.333665976046035 -0.09960125603136039
1652452864.9540522 4.332117465425192 48.333665976046035 -0.09960125603136039
1652452865.3553278 4.332072776854776 48.3332486068708 -0.09955570752582127
1652452865.7557814 4.332008222206738 48.33297619771616 -0.09938313543354327
1652452866.1545355 4.331963055003431 48.33311446989726 -0.09925037875704434
1652452866.5557876 4.331934807021582 48.33330062121486 -0.09915434220514863
1652452866.9557672 4.331943319049554 48.33322967550295 -0.0990626105113444
1652452867.3545344 4.331966261776014 48.33337833965158 -0.09901793053200969
1652452867.7545254 4.331989294338108 48.33357686038456 -0.09903900374035679
1652452868.1556425 4.33204317191727 48.33352893074671 -0.09909027548806165
1652452868.5556672 4.332025825048895 48.333379504546 -0.09913737492567887
1652452868.958169 4.332080276199399 48.33331132492722 -0.09918847460764357
1652452869.7581353 4.3321015455121525 48.33239029712979 -0.0992153352540544
1652452870.155648 4.332219598159416 48.33290069420012 -0.09904560958453451
1652452870.155648 4.332219598159416 48.33290069420012 -0.09904560958453451
1652452870.5556633 4.331958163407915 48.33279477573562 -0.09896617525041829
1652452870.955623 4.331908442497081 48.33267126400161 -0.09884570240572532
1652452871.355618 4.3318406760629315 48.332620442718174 -0.09876131453736497
1652452871.7581775 4.331800164143566 48.332726292370396 -0.09880652704718473
1652452872.1569378 4.332012521122408 48.33324212508576 -0.09889665179893536
1652452872.5581772 4.3320237349651975 48.33313013107318 -0.09884409401791328
1652452872.9569016 4.331996354826334 48.33314460520042 -0.09875627467392856
1652452873.3568907 4.331956810772681 48.333220876257656 -0.09870768018937903
1652452874.1556244 4.332017452873952 48.333101121346004 -0.0987954485576969
1652452874.5556047 4.332069801960369 48.333588623158036 -0.0987794934575304
1652452874.5556047 4.332069801960369 48.333588623158036 -0.0987794934575304
1652452874.955621 4.332139935510753 48.333558966350424 -0.0988019044895106
1652452875.3556085 4.332088770581731 48.33342457373597 -0.09879505652171555
1652452875.7555983 4.331980644359067 48.33352993290332 -0.09876598726885671
1652452876.1556149 4.331967562495951 48.33303779703442 -0.09871661983934116
1652452876.5556064 4.332118995561867 48.3329275898102 -0.09864326925175138
1652452876.9556086 4.332182310514966 48.33293864579405 -0.09872812064299841
1652452877.3557682 4.3321291961695 48.33270349541772 -0.09873735035836895
1652452877.7557871 4.332016136449351 48.33290063973217 -0.09866873060254483
1652452878.1557784 4.332060589314892 48.33338995524328 -0.09856406272194673
1652452878.5557241 4.3321270260677025 48.33355361254807 -0.09845261651824089
1652452878.9556046 4.332182888959277 48.33382797180475 -0.09853324709622396
1652452879.355621 4.332230113536227 48.33379125482065 -0.09855637854291327
1652452879.355621 4.332230113536227 48.33379125482065 -0.09855637854291327
1652452879.7569232 4.332283784418873 48.33400602496698 -0.09856229923994297
1652452880.1566172 4.332213593909376 48.33364192902897 -0.09857928566109603
1652452880.5553734 4.332116196469755 48.333109266836416 -0.09867465273044412
1652452880.9566405 4.332081904400283 48.333415738332405 -0.09875545358648258
1652452881.3566287 4.332186129536193 48.333532898777875 -0.09877592675537433
1652452881.7566302 4.332176491634211 48.33336180305748 -0.09887769545373781
1652452882.1566646 4.332284629741395 48.33322581758016 -0.09894844311504958
1652452882.5566056 4.332337064644122 48.332945764676 -0.09903403041933778
1652452882.956615 4.332185209087623 48.33298518177513 -0.09913420023937186
1652452883.3566325 4.332370623214157 48.33330366029652 -0.09912825344148374
1652452883.7566462 4.332309065541843 48.333170686141884 -0.09911656559037219
1652452884.1566472 4.332424570254659 48.333145624459945 -0.09907938476395972
1652452884.5566134 4.332314551060211 48.333230544218104 -0.09910982285288777
1652452885.3566225 4.3322225865826205 48.333021586263804 -0.09901841397446798
1652452885.756619 4.332342538020612 48.33325750416185 -0.09906330604773478
1652452885.756619 4.332342538020612 48.33325750416185 -0.09906330604773478
1652452886.156621 4.332269849822353 48.333378484817885 -0.09901828047785965
1652452886.556609 4.33225839474213 48.333138334733135 -0.09896783145604438
1652452886.956668 4.332263982712181 48.33327886070415 -0.09896338836609192
1652452887.356666 4.332249065257969 48.333805370583676 -0.09896623983213154
1652452887.7566535 4.332278420864867 48.33406391802454 -0.09894831083800798
1652452888.156649 4.332230950332235 48.33401890308234 -0.09904788385868629
1652452888.5566895 4.3322317318344865 48.33409857228539 -0.0991550261811805
1652452888.9566312 4.3322069824870475 48.33375804811368 -0.09924968856128152
1652452889.3566613 4.332130665933164 48.33324321447992 -0.09929360730594433
1652452889.756622 4.332034753128212 48.33291227474477 -0.0993697169721437
1652452890.1566026 4.332010713275007 48.33324701151959 -0.0995241680613812
1652452890.556626 4.332023019485828 48.332952756085504 -0.09953377212457415
1652452890.9553595 4.332011209568861 48.33286357264974 -0.0995289658263473
1652452891.3566313 4.33217694844604 48.333144113536264 -0.09954525838707723
1652452891.7566028 4.33216367789835 48.3332467122073 -0.09954934370743507
1652452892.155344 4.332163558856241 48.33291394326582 -0.09953682901630762
1652452892.5553572 4.332170898926652 48.3333258355552 -0.09962100078789138
1652452892.9566238 4.332195923395126 48.333342723515884 -0.09961794742632274
1652452893.3579614 4.332246491802987 48.33338656653444 -0.09960628141363453
1652452893.756613 4.332234569579949 48.33285404185785 -0.09954365880672889
1652452894.1566799 4.332284021721534 48.33293861822848 -0.09950491700714786
1652452894.556624 4.332354368461992 48.333101080968675 -0.09947170196794164
1652452894.556624 4.332354368461992 48.333101080968675 -0.09947170196794164
1652452894.9554071 4.332272083627455 48.33322333990254 -0.09942587074295361
1652452895.3566818 4.332287764572364 48.33323113336599 -0.09945095747821331
1652452895.7553952 4.3323048358525185 48.33304662917786 -0.09952763758913724
1652452896.1553662 4.332457645598321 48.33340777834334 -0.09975188030388105
1652452896.555408 4.332543243585583 48.33344574982388 -0.09988215386998595
1652452896.9553993 4.3001633930147705 48.34117246945233 -0.10342839878899762
1652452897.3566403 3.7226624221672786 48.446679727832795 -0.08731468004609216
1652452897.7566278 3.143288694848298 48.55973854077243 -0.07983918546597746
1652452898.155424 2.5235416453425543 48.686757505657454 -0.06647773650806044
1652452898.5566165 1.8966822502824208 48.82055911144346 -0.06720214188882156
1652452898.9566681 1.2672149018669607 48.960555541754594 -0.09120575778243395
1652452899.355408 0.688444656266217 49.11991791751754 -0.1183013231151484
1652452899.355408 0.688444656266217 49.11991791751754 -0.1183013231151484
1652452899.755395 0.2503157813802517 49.20106853946235 -0.17913170426277475
1652452900.155404 -0.278186172280801 49.33357499390429 -0.1695986891840232
1652452900.5554075 -0.8658894411290241 49.463066539396166 -0.10223120006764846
1652452900.9553869 -1.46023808371978 49.6384609953391 -0.0697965428688418
1652452901.355373 -2.0226259511474396 49.772374763641125 -0.05704956516345816
1652452901.7553852 -2.538306874132317 49.858329531246426 -0.061156731839523026
1652452902.1553526 -3.0821047147793976 49.86848170971935 -0.06084041261297135
1652452902.5552642 -3.67267122630858 49.860835592103484 -0.03851651738575368
1652452902.955248 -4.276034576874888 49.814676590438 -0.022968318353995598
1652452903.3552613 -4.898701423390754 49.73898124364645 -0.003420073977043414
1652452903.7564719 -5.515549877037177 49.641245820272495 -0.0009556554640495762
1652452904.15635 -6.1105031277044475 49.53784323087628 -0.012534095330328898
1652452904.15635 -6.1105031277044475 49.53784323087628 -0.012534095330328898
1652452904.9566438 -7.204577238976636 49.30731252421012 -0.023191938344349516
1652452905.3554034 -7.767430385881148 49.22760852389301 -0.01967588237836826
1652452905.755384 -8.339920399155602 49.15311900035251 -0.01589433459371198
1652452906.1566484 -8.922665960735618 49.079643293619014 -0.01274226380731902
1652452906.5553784 -9.520029199717058 49.03741038599665 0.0037023103521683365
1652452906.955381 -10.098749838540574 48.97419871029173 0.021176195010074894
1652452907.3553627 -10.643939161235927 48.8641538786747 0.033262543100505915
1652452907.7565923 -11.162382376755051 48.69902854347095 0.03554124565436123
1652452908.1553433 -11.648792574413438 48.50543957611782 0.040439069335889144
1652452908.5564904 -12.068897137479851 48.25258506671733 0.04609408854006142
1652452908.9552283 -12.458960711233885 47.82593604078417 0.056475239752958595
1652452908.9552283 -12.458960711233885 47.82593604078417 0.056475239752958595
1652452909.3554451 -12.846285055129062 47.364603511880745 0.06035974181465892
1652452909.7558122 -13.269072071588287 46.88807605133833 0.06243271614689089
1652452910.155773 -13.646229773364771 46.4706466058643 0.058140343230154934
1652452910.9557755 -14.302891395246645 45.86657361837046 0.051272015448738606
1652452911.3557692 -14.755662110283115 45.64016094924199 0.04935391008346668
1652452911.7557657 -15.31899801225254 45.37364247383283 0.032315544580967026
1652452912.1558943 -15.905569674002514 45.13094557350566 0.004915470279941492
1652452912.5558958 -16.412004863455195 44.90548216499125 -0.027505797691337874
1652452912.9558475 -16.885736573020132 44.70759315753443 -0.054950576959708175
1652452913.3557234 -17.339027209285952 44.4359143864514 -0.03698753842284552
1652452913.7556033 -17.77220540673988 44.14641933971494 -0.024585524544937787
1652452914.1555982 -18.12938624731182 43.83126628247411 -0.016985909921419906
1652452914.1555982 -18.12938624731182 43.83126628247411 -0.016985909921419906
1652452914.5568757 -18.445651326062297 43.416452767182754 -0.006851263733332613
1652452914.9581707 -18.692030081071408 43.01963319082635 0.012646110349691098
1652452916.1576002 -19.35683845369301 41.257795037197695 0.018839357404441037
1652452916.5563495 -19.42717226106093 40.658424260848136 0.0103014945428192
1652452916.9562569 -19.450477186409252 40.05403345566857 0.011123354473917824
1652452917.3575332 -19.430721635442907 39.44905082843168 0.020447615105345485
1652452917.7562451 -19.37270527637939 38.849060998127115 0.018749851131020234
1652452918.1576152 -19.28543794235856 38.238843239328794 0.02149128599527289
1652452919.7583563 -19.14848165378605 36.13288608974699 0.018848245405811148
1652452920.1583915 -19.2286223721005 35.546483846005415 0.029300844099211742
1652452920.5583951 -19.30019739716589 34.96684751096992 0.012683216454411506
1652452920.9559183 -19.395387114344203 34.405676818282124 0.015718684092149826
1652452921.3571372 -19.454903179347156 33.97477101285874 0.021287233890595503
1652452921.7571595 -19.471966472048464 33.569235153400655 0.01528270704330792
1652452922.1571393 -19.48313235312305 33.21523710253685 0.027705828244201702
1652452923.7564688 -18.413232809297238 31.776561145912254 0.06608349319843454
1652452923.7564688 -18.413232809297238 31.776561145912254 0.06608349319843454
1652452924.1565485 -17.96074875449368 31.493911068564042 0.0647254464112898
1652452924.5567458 -17.50445145897109 31.27068851130302 0.0655909050029922
1652452924.956727 -17.039343486409525 31.16703942757284 0.059661623582957624
1652452925.356667 -16.451229910537933 31.191225933310843 0.0756377797299328
1652452925.7566357 -15.807307329778098 31.27971361356426 0.1097122964089591
1652452926.1566246 -15.220195830629434 31.39792833161932 0.1026287197865964
1652452926.556603 -14.637634702381044 31.560132472265554 0.098003554047392
1652452926.9566016 -14.03516474107359 31.75021521792852 0.11009404247679627
1652452927.3553574 -13.422964850318607 31.973741684719023 0.1161879073887882
1652452927.7565863 -12.834741059092977 32.23436878396667 0.10259145127698441
1652452928.156588 -12.319688790253315 32.49532031900375 0.07435478004970009
1652452928.5553548 -11.894007220235467 32.698288783856036 0.04589444495615186
1652452928.956606 -11.483421883756927 32.879526888450954 0.030306135338252105
1652452928.956606 -11.483421883756927 32.879526888450954 0.030306135338252105
1652452929.3566155 -11.056078979926275 33.02658588340864 0.050478407175404305
1652452929.7566266 -10.622052107877028 33.10528646318434 0.06403896713822244
1652452930.1566243 -10.09613626873555 33.150039461581954 0.0687593488680604
1652452930.5566301 -9.515654143576425 33.17077252995239 0.06463409779359147
1652452930.955372 -8.918125208323623 33.150257155493684 0.0584019842763851
1652452931.356647 -8.34911952488914 33.126677044760186 0.05094873171037306
1652452932.1553698 -7.140491555015116 33.038933616595514 0.06086016603117872
1652452932.5566242 -6.5382929029562415 32.98505477716714 0.05536012856496014
1652452932.9566653 -5.938778555049064 32.92345149400906 0.05420488351858216
1652452933.356621 -5.35937778907072 32.864618163479314 0.04605529139994469
1652452933.7566395 -4.762738668829247 32.78823752119461 0.04628802037049834
1652452933.7566395 -4.762738668829247 32.78823752119461 0.04628802037049834
1652452934.1567955 -4.151758950469073 32.710243406031324 0.05449520639761152
1652452934.5569997 -3.519426029058959 32.613361541279396 0.05157178139486318
1652452934.9570293 -2.888327978361927 32.50415029901828 0.038284896977890615
1652452935.35704 -2.3150282717975266 32.39749157310587 7.066484391676786e-05
1652452935.7570014 -1.7682546556667589 32.27925048437171 -0.02986238924522666
1652452936.155744 -1.1862739904399469 32.15350214453093 -0.034283371702316545
1652452936.5570571 -0.5843453935309739 32.011946593584774 -0.02279397908070646
1652452936.956892 -0.019741056722814676 31.87943249362064 -0.03341806925899887
1652452937.3569183 0.565280090448617 31.729138647991512 -0.04651686135430866
1652452937.7568855 1.1134585745097496 31.599317803741783 -0.04964599668356384
1652452938.1568682 1.6726564238148214 31.45862472560433 -0.05751932045344682
1652452938.556909 2.244853432817685 31.306883716630573 -0.037254357081700884
1652452938.9569347 2.792435279735848 31.15798822756041 -0.036258497760267405
1652452938.9569347 2.792435279735848 31.15798822756041 -0.036258497760267405
1652452939.3569906 3.328744222959692 30.995828581491534 -0.021702706444764908
1652452939.7570014 3.8726560760946427 30.81994483880512 -0.010598026423151496
1652452940.156988 4.420115309976715 30.639180005192667 -0.011686107883515207
1652452940.5569909 4.984837605869547 30.44208469486665 -0.000409731187720086
1652452941.357175 6.105023594787259 30.055352601721047 0.01824566813615608
1652452941.7571073 6.678409653600305 29.848336313443532 0.032078566787399454
1652452942.157103 7.253222947262941 29.63325988007319 0.030179350602351773
1652452942.5569894 7.79087738590642 29.40928991041834 0.03592495707649129
1652452942.9569707 8.153364039876148 29.26166634034089 0.024241396916904412
1652452943.3568473 8.33144540540491 29.199283421679226 0.012655425650305141
1652452943.7567234 8.515094949124581 29.126562530170574 0.006420707189260966
1652452944.1565983 8.75299619413246 29.01936015746309 -0.0007281976015307556
1652452944.1565983 8.75299619413246 29.01936015746309 -0.0007281976015307556
1652452944.5566683 9.118253535718011 28.86074331984005 0.0012301010965726777
1652452944.9566388 9.48431871063621 28.707543069959947 0.006959009471931121
1652452945.3566637 9.871830211605598 28.545687545980236 -0.001131492401440115
1652452945.7566338 10.272612623605347 28.378446255755552 -0.015573100763880299
1652452946.1566145 10.763583236712396 28.185379450062115 -0.021141754175909855
1652452947.3566182 12.01227114927038 27.489642689313875 -0.029509026014363338
1652452947.7566557 12.3019703132864 27.35184129511111 -0.029464069931998182
1652452948.1567457 12.499126202174807 27.274889546303967 -0.027521153976514945
1652452948.5567772 12.670584187603598 27.260777606067787 -0.03672603028591809
1652452948.9586232 12.76044959899324 27.275854287254543 -0.03917474150552286
1652452948.9586232 12.76044959899324 27.275854287254543 -0.03917474150552286
1652452949.7561338 12.870467216143524 26.59947990920973 -0.03222362147628366
1652452950.9561396 12.06217228759775 25.76802781637992 -0.03374930092866901
1652452951.356125 11.812789642333065 25.79037402343875 -0.028673776141329932
1652452951.756212 11.484498449589715 25.855244425564933 -0.018211284151846308
1652452952.1561542 11.110817186847687 25.87131814537841 -0.020073989561475436
1652452952.55612 10.603738716401029 25.89321776753515 -0.01611245521061966
1652452953.3561416 9.548966883800787 25.903440669437792 -0.0017761583488265509
1652452953.7561355 9.05094768481472 25.890805267639777 0.0001485178528042308
1652452953.7561355 9.05094768481472 25.890805267639777 0.0001485178528042308
1652452954.1561701 8.544930928581401 25.85715476333106 0.0018677486166804314
1652452954.556289 8.195159067764415 25.819159399204857 0.02241284617971434
1652452954.9562418 8.223550931877533 25.820494173530182 0.010546784666704279
1652452955.3563955 8.212299271756436 25.817626609180635 0.007947819014010649
1652452955.7563715 8.217802656977813 25.818213421955097 0.00774665927955992
1652452956.1563735 8.215801306300161 25.818732973682792 0.008225619085523939
1652452956.5563529 8.215541521683498 25.818415161098343 0.008346541747299319
1652452956.9563632 8.215623849307349 25.81841633934299 0.008341926170955305
1652452957.356366 8.215663830865125 25.81842125041756 0.008215559331649358
1652452957.7563574 8.215620533298956 25.81849993263674 0.008081136672775324
1652452958.1563869 8.215495509520025 25.818589914959716 0.008123540241020855
1652452958.5563917 8.21560059554044 25.818380021530693 0.00814576952030166
1652452958.956388 8.215540122223903 25.81819799285662 0.007994584359949541
1652452958.956388 8.215540122223903 25.81819799285662 0.007994584359949541
1652452959.3551562 8.215539449042716 25.81821930585228 0.007969611029622958
1652452959.7551394 8.215638449577177 25.818439064196482 0.008015043804693922
1652452960.1564689 8.215555764297704 25.818438288751175 0.00804250880952545
1652452960.5564144 8.215577704670082 25.818590739706494 0.008084650611926592
1652452960.9571066 8.215626491381805 25.81888157249673 0.008036709274866771
1652452961.758365 8.215828330200111 25.81912741914883 0.008124324450666687
1652452962.557131 8.215859298309251 25.81924418379436 0.008142996120500401
1652452962.9558437 8.215535807297886 25.81840397425111 0.008121493357534981
1652452963.3557515 8.215518424767602 25.818259631638334 0.008005934372858903
1652452963.759476 8.215573067525188 25.81832276628795 0.007849393338000166
1652452963.759476 8.215573067525188 25.81832276628795 0.007849393338000166
1652452964.156863 8.215406042658554 25.817913030531386 0.007644798781684614
1652452964.5593593 8.215450383161361 25.8181851720585 0.00768180614089109
1652452964.956901 8.215484947357506 25.81820550348256 0.007786199008813888
1652452965.356888 8.215482444819681 25.818217844786204 0.007847971309255741
1652452965.7568665 8.21567019509489 25.818574228490874 0.007807382127023199
1652452966.1556566 8.215624268299429 25.81850584905534 0.00779541194364014
1652452966.5557451 8.210435513324768 25.809601244247247 0.00531035504709132
1652452966.955747 7.700181406005914 25.73977558620283 0.013312650763530831
1652452967.3557727 7.239002883329999 25.672022670077098 0.004308529822828866
1652452967.755762 6.787694518046482 25.621784730837362 0.00831672801284411
1652452970.5573595 3.513739791431778 23.510719796789914 0.030691679579422593
1652452970.9574041 3.1978487369105046 22.990950062276852 0.03437501588340475
1652452970.9574041 3.1978487369105046 22.990950062276852 0.03437501588340475
1652452971.357391 2.9139946882705257 22.453828414291657 0.047881554620872124
1652452971.7573655 2.707694008453254 21.9434029994152 0.04586025617645578
1652452972.157387 2.56949082738638 21.297830049654813 0.034251592099382666
1652452972.5586236 2.48102496748462 20.71600197101574 0.03691965045072071
1652452972.9573658 2.373149045147274 20.1437211965361 0.0351405388671997
1652452973.3586743 2.304275725948303 19.52143434212652 0.05235650188793961
1652452973.7584977 2.2720025854052093 18.943070940755035 0.05893111376104154
1652452980.1572142 0.23324585361804306 11.21112808075359 0.07906652239474615
1652452980.5561273 -0.08052583290457616 10.701341657550099 0.08261356902342176
1652452980.9561398 -0.40198603720976944 10.183700097860294 0.08641779408536926
1652452981.3573828 -0.7449483299790698 9.659559097632886 0.09154959165161247
1652452981.7561076 -1.0937769124492505 9.149942704328188 0.08455794130126709
1652452982.1573617 -1.409595671555989 8.640766755570972 0.06704697814852412
1652452982.5561147 -1.6872640809976556 8.11569425701345 0.05427082420155371
1652452982.5561147 -1.6872640809976556 8.11569425701345 0.05427082420155371
1652452984.1567776 -2.9276879566872434 6.128620342034134 0.024916120536904507
1652452984.1567776 -2.9276879566872434 6.128620342034134 0.024916120536904507
1652452984.5567997 -3.3228055525755593 5.688824680994295 0.0291400418094106
1652452984.9567807 -3.7493541872904697 5.273500034559851 0.032354799679457646
1652452985.356869 -4.1891360242548785 4.879660639192461 0.03194812262540059
1652452985.756861 -4.6557053524001635 4.469706046222094 0.0362562949102308
1652452986.1580293 -5.089496745464287 4.058646431745414 0.03716308155733172
1652452986.5567496 -5.496390273594041 3.650490644943911 0.024011568039421616
1652452986.9580233 -5.910919835722069 3.2234102984448545 0.023860020502779244
1652452987.3580422 -6.313788888266742 2.808159553593265 0.0297343043595496
1652452987.3580422 -6.313788888266742 2.808159553593265 0.0297343043595496
1652452987.756913 -6.6928201623016825 2.4090364979350105 0.035127662044322716
1652452988.157678 -7.05748311175934 2.0247104358226933 0.03889817012583752
1652452988.5577545 -7.350545883479603 1.6983419908541448 0.04320432981749989
1652452990.1578257 -8.480541860376835 0.23492326054140822 0.04805011725638941
1652452990.1578257 -8.480541860376835 0.23492326054140822 0.04805011725638941
1652452990.5565472 -8.7353800622609 -0.16921892989934184 0.04774000538224965
1652452990.9577975 -8.97240237266921 -0.5544794802083612 0.0371451373238717
1652452991.3564813 -9.183258668099864 -0.9127118191670065 0.041754383316126964
1652452992.156483 -9.507543371207483 -1.5227548691344692 0.04777378749645317
1652452992.156483 -9.507543371207483 -1.5227548691344692 0.04777378749645317
1652452992.5581317 -9.571549721514934 -1.6378382666923685 0.0487542294458827
1652452992.957383 -9.575306819384721 -1.6442745014972457 0.04536343177238783
1652452993.3573914 -9.574070505998874 -1.6426245350061848 0.0427101429232874
1652452993.7561185 -9.573891763766815 -1.640668284618009 0.04266840793972526
1652452994.157389 -9.574061700434033 -1.6424614276556118 0.042771387055362986
1652452994.557363 -9.57403085047429 -1.643235969189326 0.04297544683236748
1652452994.956007 -9.573986241843922 -1.6435587888055192 0.043065855712369816
1652452995.3573968 -9.574218251971509 -1.643827153213405 0.04318346266286616
1652452995.7573652 -9.574368966973442 -1.6440123522365462 0.04330849986009694
1652452996.1572793 -9.57438962243775 -1.644020741596659 0.04329330184777053
1652452996.5572236 -9.574777242696015 -1.643971753232122 0.04306105780912434
1652452996.9571126 -9.574584244113767 -1.6439941437774168 0.04296223560770307
1652452997.3570201 -9.574536811215179 -1.6440083896187256 0.04299010787747587
1652452997.3570201 -9.574536811215179 -1.6440083896187256 0.04299010787747587
1652452997.7570345 -9.5740611982437 -1.644065857088394 0.04302302776904793
1652452998.1558003 -9.573808663948677 -1.6440975531982036 0.04316052539353915
1652452998.5570152 -9.573943659333324 -1.644087706370493 0.04328128710838086
1652452998.957043 -9.573935280807191 -1.6440826319366906 0.043097208448527324
1652452999.355774 -9.57386964652785 -1.644093665843199 0.04294175471576667
1652452999.7570443 -9.573739956237972 -1.6441180362398802 0.04290211986019565
1652453000.1570034 -9.574053543194047 -1.644066410669161 0.04283871994059846
1652453000.5569901 -9.574141858852222 -1.6440621313416668 0.042791651345102044
1652453000.9568884 -9.573998190656841 -1.6440789479078521 0.04292380283309383
1652453001.356863 -9.574451021176845 -1.6440184023146047 0.04307949368341907
1652453001.7567327 -9.574264945406759 -1.6440413663753595 0.0431440575477241
1652453002.156661 -9.574313749982807 -1.6440363267997022 0.043120034471837765
1652453002.556699 -9.574249856151507 -1.6440253801398872 0.04307500069291165
1652453002.556699 -9.574249856151507 -1.6440253801398872 0.04307500069291165
1652453002.9580421 -9.574170123652824 -1.6440374616912972 0.04306157281345241
1652453003.356798 -9.573716044712794 -1.6440858036288897 0.043155204940133474
1652453003.7567966 -9.57369158765442 -1.6440707061852913 0.04310071007437993
1652453004.1568148 -9.57389744255061 -1.6440351823120771 0.043065753641888416
1652453004.5567784 -9.573935060110731 -1.6440178767736269 0.043054138186316204
1652453004.95683 -9.573732024759364 -1.6440405513205212 0.04319668763970391
1652453005.3568702 -9.574095569551766 -1.6439901332705995 0.0433581536286301
1652453005.756907 -9.574261542358467 -1.6439582473249343 0.04332361630678572
1652453006.156871 -9.573844798863995 -1.6440144012868534 0.043079140177499364
1652453006.5567625 -9.574110695965933 -1.643984148996474 0.04301510626744831
1652453006.9580526 -9.573609043789485 -1.6440485902824231 0.043127445300914335
1652453007.3580773 -9.574015680893957 -1.6439652680304695 0.043215892290137226
1652453007.3580773 -9.574015680893957 -1.6439652680304695 0.043215892290137226
1652453007.7580824 -9.573760491274648 -1.6440015541827129 0.043275657303480375
1652453008.1567972 -9.572427377715528 -1.6446667241523705 0.041660711404155726
1652453008.5580378 -9.72804049674102 -2.0036657260875135 0.04499319035361421
1652453008.956826 -9.875917599924804 -2.293423372548202 0.036315867368857224
1652453009.359262 -10.062795260079806 -2.6778161541311385 0.033472957650307
1652453009.7567782 -10.252257253317069 -3.0978619573665 0.04682803764888244
1652453010.5592978 -10.591866115940991 -3.8138646695160716 0.04922327421515277
1652453010.9592483 -10.681968276466726 -3.9689898821932803 0.04486277795241356
1652453011.3580818 -10.743474261931421 -4.069251899130286 0.04290802003136479
1652453011.7580419 -10.783433257183106 -4.136882131689531 0.04242073649353373
1652453012.1580613 -10.80923097223374 -4.174557823503891 0.04075900947243738
1652453012.5580733 -10.832656440799191 -4.2258679280743525 0.04131794088803986
1652453012.5580733 -10.832656440799191 -4.2258679280743525 0.04131794088803986
1652453012.9567924 -10.836112300107601 -4.237057077836536 0.041435112635530014
1652453013.3580637 -10.836250120209481 -4.2356178884358915 0.04082630526237885
1652453013.7567914 -10.837063672360483 -4.233480096197346 0.04047266636448249
1652453014.1581533 -10.837134027169089 -4.2327876430768665 0.04064878084286905
1652453014.558156 -10.837465018162773 -4.232613369560605 0.040683642813485466
1652453014.9581833 -10.837664843493325 -4.232616975066257 0.04058943519906838
1652453015.3570013 -10.83723077879033 -4.232540513785041 0.04057814215028083
1652453015.7582421 -10.83765877993067 -4.232636679968367 0.040527821809184406
1652453016.1568513 -10.837761355829997 -4.23268297922335 0.04051319006109405
1652453016.558048 -10.837719615021829 -4.2326838908389615 0.04049145853946634
1652453016.9580336 -10.837445680951822 -4.232622649274159 0.04047951717657966
1652453017.358045 -10.837455226304662 -4.232625614531392 0.040477551026528946
1652453017.358045 -10.837455226304662 -4.232625614531392 0.040477551026528946
1652453017.7579098 -10.837572857688073 -4.232649432531707 0.0404758845279557
1652453018.15795 -10.837278770573022 -4.2325907103142155 0.04048428836759782
1652453018.557932 -10.837652951685449 -4.232693949851569 0.04039334669051187
1652453018.9579904 -10.837598222618979 -4.232712523543148 0.04038999508603913
1652453019.3579078 -10.837585710177283 -4.232727530359001 0.040407163304574556
1652453019.7579257 -10.837329526981854 -4.232682261618336 0.04040864636413366
1652453020.157965 -10.837149597802526 -4.2326649534397065 0.0404144439611841
1652453020.5579314 -10.837144627972211 -4.232684320619304 0.040381486929703
1652453020.9579315 -10.837302829063876 -4.232738335961965 0.040254432848583654
1652453021.357932 -10.83728768893738 -4.2327471964064465 0.04016505865492859
