1652452349.555371 -9.708747390862346 102.3204846253007 0.40771751365816206
1652452349.9553053 -9.47755745370783 101.74626082763119 0.40231411340523243
1652452350.3540547 -9.26935218316258 101.16369570841124 0.39319138574434037
1652452350.756598 -9.099986859331507 100.55043469605323 0.38512452048240003
1652452351.155334 -8.956868431916137 99.92598364145665 0.37385874651028006
1652452351.5553324 -8.841848978206706 99.29228105250456 0.3573297398622012
1652452351.9553125 -8.738814670480041 98.66649596073405 0.33211723322067166
1652452351.9553125 -8.738814670480041 98.66649596073405 0.33211723322067166
1652452352.355437 -8.640174435962015 98.1640329478015 0.3101965074892356
1652452353.5541542 -8.222101396446732 96.78701310976932 0.30879475625042696
1652452353.9541016 -8.021576318464842 96.35667337446694 0.3114639822163515
1652452354.7553692 -7.524321756021775 95.51787048191554 0.32146394907687886
1652452355.5541434 -6.8463326581093975 94.59070536319419 0.3446890472181065
1652452355.9540718 -6.446381513668918 94.13150327044006 0.34854342866929827
1652452356.75397 -5.5930307134596715 93.31610475591724 0.3304950496505714
1652452357.1541188 -5.126221848888523 92.92921273616933 0.31657842860338253
1652452357.5542731 -4.645616404399855 92.58708406262038 0.29912343811737374
1652452357.9542882 -4.152313284212361 92.29324251564397 0.27834828484187013
1652452359.554104 -2.0700473329553324 91.49008971563158 0.2369527128857171
1652452359.9540713 -1.5358269372796027 91.37174875341361 0.23667928206259237
1652452360.753831 -0.4010247147536972 91.23314371621167 0.2441764387477905
1652452360.753831 -0.4010247147536972 91.23314371621167 0.2441764387477905
1652452361.1552083 0.20207447924311434 91.19253586419909 0.24610387346992446
1652452361.5539942 0.8070501170934696 91.15178170888682 0.24432085510687107
1652452362.355075 2.0315579412450218 90.98166089211786 0.24213669639680307
1652452362.7550719 2.6611683713531353 90.87378622654047 0.2369715795726024
1652452363.5537558 3.8644301155717904 90.65580009497712 0.2187397640005192
1652452365.1550915 6.2267285938542525 90.1628385991735 0.1738789422835554
1652452365.5540113 6.755285964259022 90.02897078511242 0.17356039572951348
1652452365.5540113 6.755285964259022 90.02897078511242 0.17356039572951348
1652452366.3540761 7.879698040613946 89.66664627735724 0.19747786731544084
1652452366.7552173 8.449181682957729 89.45919774352006 0.21140738428531697
1652452367.5553975 9.562848953873516 88.98111188672476 0.22896930302004878
1652452367.5553975 9.562848953873516 88.98111188672476 0.22896930302004878
1652452367.9542015 10.083947137419791 88.73400388760322 0.23680952049285395
1652452368.7554681 11.140898975525023 88.16874656033588 0.24843050678980058
1652452369.1554513 11.637012540529156 87.88034164912499 0.2556353479308447
1652452369.5542755 12.146548002409933 87.55638372387777 0.26537085200573846
1652452369.9554415 12.670067187399388 87.26353936367892 0.2741556173271084
1652452370.3553653 13.174265580931523 86.98661423135987 0.2818926587672845
1652452370.7553418 13.692022914734213 86.73370978428197 0.2910089442837278
1652452371.155335 14.211688117966496 86.47938349914088 0.30211063541806704
1652452371.5553346 14.746614177894351 86.26178033303823 0.31522370214530226
1652452371.9553382 15.285478555904021 86.01899569332325 0.32782701599671077
1652452372.755366 16.365133663187496 85.58950307612388 0.3556379307103876
1652452373.154091 16.942685649242275 85.35466159467961 0.36726399451113473
1652452373.5553467 17.48353857472725 85.1300269490107 0.3798694480304704
1652452375.1547031 19.124815393459546 84.0643998705812 0.5183498450574744
1652452375.5546775 19.394365047543033 83.70092206205358 0.5496415510042868
1652452375.9545805 19.61660604012754 83.22575237499277 0.5810387741848393
1652452376.3546138 19.785927699858334 82.71732828210965 0.6014599307413273
1652452376.7546122 19.827169776926315 82.18886475186089 0.6098512884532039
1652452377.1546628 19.851781020288648 81.81794493309609 0.6142691590295809
1652452377.5546174 19.772458140332603 81.50585445297466 0.6081864543176383
1652452377.9546099 19.44643798633954 81.0925088851665 0.5975798661950701
1652452378.3545835 18.958384797898965 80.6400307418445 0.5615842752840832
1652452378.754581 18.291381303152185 80.21732149694654 0.45868948989760705
1652452379.1546142 17.672039671054893 79.90654103856701 0.34909334015722276
1652452379.1546142 17.672039671054893 79.90654103856701 0.34909334015722276
1652452380.7545903 15.897121461537056 79.24582689164991 0.19683610781086702
1652452381.1545806 15.355529221701007 78.9823083442905 0.1542576245996273
1652452381.5546124 14.86953292092611 78.7328482778137 0.1336929526819552
1652452382.7546132 13.59208376030783 77.7846928543569 0.11182266968554448
1652452383.1546187 13.149553137325492 77.41651675781894 0.11864051217683878
1652452383.5546126 12.701940593286238 77.04235408427681 0.12889021292481057
1652452383.5546126 12.701940593286238 77.04235408427681 0.12889021292481057
1652452385.154613 10.890289461626661 75.45247453924974 0.14278910778026987
1652452385.5545943 10.411846378071324 75.04536164862932 0.13457457941062934
1652452385.9545987 9.940476130123423 74.69873271654654 0.1294352052128878
1652452385.9545987 9.940476130123423 74.69873271654654 0.1294352052128878
1652452386.7545724 8.899421218601862 74.01979112864385 0.12229201416957683
1652452387.154598 8.383846937348082 73.69493539412242 0.11473419331398967
1652452387.5545876 7.902320165967302 73.39298252338176 0.10776134068639334
1652452387.9545717 7.400073689276542 73.09030092263023 0.1039692371366682
1652452388.3546135 6.895052923405191 72.77626786882661 0.10419748568862786
1652452388.7546313 6.378457955936575 72.48270540317453 0.10552239359588658
1652452389.154618 5.863475509580116 72.20302091371158 0.10845413628005812
1652452389.5546176 5.3327495330435815 71.91765972134147 0.11362190329692944
1652452391.1547024 3.2515214086691513 70.76887038742247 0.1092905693079014
1652452391.5547502 2.703396328924369 70.48304768568632 0.10527099531140713
1652452391.95474 2.145795302517423 70.19760242644874 0.09980294415446431
1652452392.3547263 1.6414469166014516 69.93669906385408 0.09371589688101711
1652452392.7547207 1.1211727942848937 69.68718301638829 0.09178414815899272
1652452393.1547208 0.530549299328323 69.40438789073583 0.08836052165696033
1652452393.5547016 0.021537652125863713 69.1860669633978 0.09234740451510791
1652452393.9547138 -0.44295083936069984 68.98655861515434 0.09917431039847957
1652452394.3547611 -0.9986460977097992 68.7597919077723 0.12759350088507873
1652452394.7547944 -1.5356223719031894 68.53600238491961 0.15622954673543465
1652452395.155975 -2.0803321983335192 68.30848146809258 0.17711125353572005
1652452395.554864 -2.6385165369342944 68.07847779975286 0.1927766545245143
1652452395.9548845 -3.2116402002286555 67.83348639516522 0.19809124047604693
1652452397.157261 -4.858902850522764 67.18770639738318 0.21422382048823607
1652452397.555965 -5.43454928775747 66.98960777658819 0.2247802440640503
1652452397.555965 -5.43454928775747 66.98960777658819 0.2247802440640503
1652452397.9559782 -6.016408565699613 66.78121980107815 0.22767676567067513
1652452398.7545867 -7.082131224674601 66.3771188707107 0.24421576617972351
1652452399.1559072 -7.586517225084678 66.15140326332832 0.2613445125040189
1652452399.5558295 -8.058916918673857 65.90937831693583 0.27955526034442657
1652452399.9558213 -8.565070654536079 65.63613494891659 0.30307199855476696
1652452400.355952 -9.0796031726454 65.35872430871372 0.3257131300385632
1652452401.15599 -10.14621887983126 64.75431252800502 0.353605415635411
1652452401.5559597 -10.662493547490657 64.435692878921 0.35567176968401626
1652452401.955983 -11.154115515552336 64.12254029107423 0.3592896317157431
1652452402.3558774 -11.648546732170665 63.805971353238746 0.3626667005281618
1652452403.1559558 -12.59417108977909 63.13058420725227 0.3750741853756584
1652452403.5559988 -13.01953489371685 62.747948630783334 0.3768056639873411
1652452403.9560091 -13.435750283784449 62.3216865013365 0.3721232899585025
1652452404.7560048 -14.114998418351867 61.40817545183351 0.3655834248640801
1652452405.1560247 -14.409190903041655 60.89628611414919 0.3573411193791717
1652452405.555973 -14.674678316752274 60.39235196942084 0.3497893956868424
1652452405.955953 -14.92076989935614 59.851006577092896 0.34316263935824226
1652452406.3559434 -15.152289967616618 59.305508774367624 0.33744419759310507
1652452406.75583 -15.369908832552955 58.77714235911283 0.3363935298805403
1652452407.155822 -15.584564639336529 58.2342053411911 0.3372757200296096
1652452407.155822 -15.584564639336529 58.2342053411911 0.3372757200296096
1652452407.5557325 -15.763211824937802 57.69068614333181 0.342800477520536
1652452407.9556963 -15.94260733895176 57.12306167150882 0.3466727804269072
1652452408.355584 -16.09437963644278 56.54071768381258 0.34676802034760346
1652452408.7555897 -16.233569765269866 55.97368396432358 0.34618301762637466
1652452409.1555734 -16.362822091183993 55.379674000806 0.3433612344178751
1652452409.5555706 -16.49759028137163 54.79571055623993 0.3389803093201515
1652452409.9557564 -16.644514747170476 54.21404228186577 0.3368921355244422
1652452410.7557433 -16.999411345777588 53.04608144450875 0.33370141700622846
1652452411.1557877 -17.183538437529574 52.466242979179604 0.3309012599374688
1652452411.5544598 -17.364875343395457 51.86042903835218 0.31767685420464387
1652452411.9563956 -17.557538720705 51.16245915394664 0.31574006013237055
1652452412.3562124 -17.71609898620722 50.76284460045114 0.2809651503342098
1652452412.7562814 -17.869312007939236 50.28906424162594 0.2797254234781142
1652452413.1562655 -17.95223751561722 49.85522774208475 0.29706711324862545
1652452413.5562978 -17.97002953532681 49.417778666628905 0.29457026016899507
1652452413.9563916 -17.957854220097598 49.03517121032291 0.3034543160993303
1652452414.355089 -17.874255121584604 48.74565983902563 0.3091473950966685
1652452414.75507 -17.718420883621874 48.446966863720036 0.3139126817198786
1652452415.1561894 -17.518770275705435 48.16356930219588 0.3244798371716993
1652452415.5561793 -17.278781899785095 47.91868656394775 0.34012895159009615
1652452415.9561853 -16.880041390538054 47.72105476018368 0.35117876142668947
1652452416.356379 -16.392151935443948 47.55913197145738 0.37171120506195804
1652452417.1564322 -15.338584121818469 47.51145798629155 0.4080470747891616
1652452417.9563727 -14.114191737543146 47.67320869269713 0.43004754174736953
1652452418.356421 -13.623143228552577 47.71719652098782 0.43393221263790693
1652452419.1563826 -12.483616797748194 47.67613860683449 0.4458527720324877
1652452419.1563826 -12.483616797748194 47.67613860683449 0.4458527720324877
1652452419.5564654 -11.846483553583885 47.645864247625134 0.4418214229143154
1652452419.9565086 -11.225800081761383 47.606010357275856 0.43533251842136994
1652452420.355375 -10.597999104444279 47.556571836498755 0.42836966114783975
1652452420.7553873 -10.001024938382281 47.5184385786218 0.41889953859974455
1652452421.1553426 -9.62387103352931 47.494703731311326 0.4107585411326646
1652452421.9553432 -8.93044693356023 47.43023094246116 0.39946192912284906
1652452422.3553863 -8.604687603743793 47.40310010047 0.39529648111903426
1652452422.7553856 -8.460802961471947 47.389521878258876 0.3923297068542853
1652452423.1553576 -8.487948424270341 47.391158712290924 0.3911707443042415
1652452423.5553372 -8.466218777155277 47.391076680422906 0.3907746397274233
1652452423.9553425 -8.47503782134849 47.39105583013679 0.3906343763663578
1652452424.7553859 -8.477725324914063 47.38948107806357 0.39025599184668447
1652452425.1553345 -8.47783016282714 47.38937144525781 0.39018874603111275
1652452425.5553422 -8.47787168430926 47.389526246827536 0.3902270807849519
1652452425.9578378 -8.47780414689423 47.389711265172025 0.39019898049713264
1652452426.3565915 -8.477848383317525 47.389408881645885 0.39018151173384924
1652452426.7566195 -8.4779073967448 47.38987616892591 0.39013694689124273
1652452427.5564835 -8.478286993813532 47.38840388888402 0.39042961021856976
1652452427.9564867 -7.833870250717198 47.32121741996567 0.3942987482749437
1652452428.3565137 -7.445996304165837 47.29661566780653 0.3857440350397883
1652452429.556563 -5.689119684690395 47.107501877527085 0.39788378329100127
1652452429.9565792 -5.085942055526816 47.04384446562559 0.39904543665847897
1652452430.356621 -4.479706441822174 46.98352095136638 0.39598867278164135
1652452430.7566736 -3.8893843784859863 46.92163321817283 0.3924860380367266
1652452430.7566736 -3.8893843784859863 46.92163321817283 0.3924860380367266
1652452431.1553683 -3.2736560184544214 46.852504375504196 0.3850061258294355
1652452431.5566611 -2.669732389019048 46.789061156982854 0.3793834338743657
1652452432.3566334 -1.3789931925234096 46.65926586915989 0.3335805522367453
1652452432.756513 -0.777845024548257 46.610533390278846 0.3034868276480037
1652452433.1565409 -0.263955690020535 46.56329288504108 0.28631889914582426
1652452433.5565817 0.2569257559140283 46.531748749423954 0.2931202236757053
1652452433.9565763 0.8159006249078851 46.50184708802827 0.3075634684350493
1652452434.356602 1.412392892923003 46.47676412407522 0.3229048426199781
1652452435.1554601 2.605502703818855 46.48239130064144 0.3305165976730365
1652452435.5554647 3.227069149943856 46.49624062746474 0.3256638559232637
1652452435.9567516 3.869818469202748 46.51549886143551 0.3125934302898915
1652452435.9567516 3.869818469202748 46.51549886143551 0.3125934302898915
1652452436.356788 4.413270405384572 46.52203885277276 0.3027676804652527
1652452436.7568095 4.9805726703302025 46.531278473193375 0.2995793274524002
1652452437.5567553 6.227848997858948 46.54450400982323 0.2986306052499482
1652452438.3567185 7.446375142218538 46.551279778701876 0.27968698351793453
1652452439.1567214 8.70309732591591 46.5263943818887 0.25129780299903365
1652452439.55675 9.28874546814223 46.4502290534306 0.24072048590037748
1652452439.9554505 9.850612403437108 46.35066691287398 0.24441762013791213
1652452440.3567176 10.402815868224126 46.195241465776384 0.25515611055057225
1652452440.7579448 10.95809899603274 46.022398948582826 0.2759824223334397
1652452440.7579448 10.95809899603274 46.022398948582826 0.2759824223334397
1652452441.1579165 11.505537131589158 45.845872375818175 0.29810697133702374
1652452441.557853 12.108542882089052 45.653654287255335 0.30478106383998094
1652452442.7597368 13.832037187377063 44.81626858424595 0.2754231847977774
1652452442.7597368 13.832037187377063 44.81626858424595 0.2754231847977774
1652452443.1583583 14.324144234103493 44.43299368450504 0.2809581546207276
1652452443.558344 14.754637189515494 44.00293469293673 0.28462530786433227
1652452443.957077 15.173263356769777 43.54365370359689 0.2916739273037393
1652452444.357093 15.542174027281181 43.06438022170534 0.29899964022089753
1652452445.1558707 16.161978923142982 41.96714030666678 0.31002788922673014
1652452445.5558317 16.376982236746922 41.386303087716605 0.31850158220916025
1652452445.955988 16.504079823709112 40.85054858229886 0.33251584781171983
1652452446.357351 16.588090730242236 40.256152036523886 0.34853760773827414
1652452446.756095 16.640695496652853 39.629091871743555 0.36374971556339586
1652452447.1560712 16.673812535859444 39.018836505611674 0.36629969238251275
1652452447.5560656 16.687928991938353 38.4678493804458 0.37209073038255425
1652452447.5560656 16.687928991938353 38.4678493804458 0.37209073038255425
1652452448.3559885 16.788671400868626 37.4646277538468 0.39526316259547056
1652452448.755956 16.87142050026585 36.95331927784671 0.41080160527988585
1652452449.1547165 17.001015822411436 36.43932338757364 0.41938344429870694
1652452451.1573343 17.860833400842687 33.559695082336326 0.4720916709861079
1652452451.5573409 17.933963853329455 32.92637612222537 0.48025815184932075
1652452451.9562101 17.956555505572947 32.30053180942366 0.4839437028226199
1652452452.3563206 17.895298953786593 31.675981364938814 0.4768100726479633
1652452452.7563798 17.7601690628568 31.103138639575086 0.46812401748730903
1652452453.1563869 17.604945337185594 30.648929644115466 0.45963355191504557
1652452453.556392 17.237977215700337 30.214663810672096 0.4393748859181926
1652452453.9564004 16.79142760086808 29.772347678556013 0.41188237318183185
1652452454.35639 16.324250274913762 29.420912511829645 0.3894076239424642
1652452454.7563605 15.75005447029304 29.126936393675198 0.37333613526792536
1652452454.7563605 15.75005447029304 29.126936393675198 0.37333613526792536
1652452455.1562068 15.169895653479296 28.90596938732286 0.3643359017901945
1652452455.55634 14.55925330769884 28.760320438339207 0.35577687689491383
1652452455.956478 13.962980627763793 28.65535790099549 0.3503076811923142
1652452456.3565686 13.407283084134095 28.550905937416502 0.346611288695594
1652452456.7565823 12.894732668955486 28.436677318275112 0.34815627498487683
1652452457.1565816 12.410660600122183 28.285673347973216 0.35228561978574574
1652452457.5565774 12.016297605475103 28.141230371996535 0.3567114749058919
1652452457.9566262 11.59837606108481 27.921792814468642 0.3651652016677271
1652452458.3565805 11.083902171704816 27.650800243120646 0.3789169090963584
1652452458.7578158 10.539681026913335 27.352896793132004 0.3853274962450573
1652452459.1564994 10.028376448357761 27.076641410545953 0.39361871855613356
1652452459.557695 9.498261621477829 26.78471253843946 0.3939046635804555
1652452459.9563804 8.965214486290265 26.49688402235769 0.4023304918247651
1652452460.3564281 8.449550581162933 26.22051807609946 0.4071497628657028
1652452460.7563725 7.923826212056956 25.913992892269498 0.40996273108333764
1652452461.1563666 7.395876623922497 25.609630877423474 0.4119682604191483
1652452461.5564039 6.907407812303028 25.296983608163046 0.41050585837460823
1652452461.9563944 6.423947362187873 24.98250603138292 0.413913734901578
1652452461.9563944 6.423947362187873 24.98250603138292 0.413913734901578
1652452462.7562072 5.461945363844054 24.317440144340537 0.4294657619135054
1652452463.5560787 4.534333171427502 23.561823874465883 0.4313255014540427
1652452463.9561086 4.297522134522797 23.384956942981077 0.428144503988389
1652452464.3560178 4.343753513884308 23.422122997356688 0.42455635255865576
1652452464.756114 4.336796754294205 23.413402193998948 0.422927790437558
1652452465.1573346 4.339111639035581 23.415833527730264 0.42282077114104505
1652452465.557238 4.336197660767829 23.415873466388074 0.4229006370669757
1652452465.9560974 4.315490897081036 23.384307895176114 0.42392673992248475
1652452466.3559918 4.274217254456127 23.358370859743594 0.4252887988835896
1652452466.7560763 4.24481317184925 23.31851583249105 0.42582038272069556
1652452466.7560763 4.24481317184925 23.31851583249105 0.42582038272069556
1652452467.5560791 4.146703992234936 23.247733452626214 0.42999088702881455
1652452467.9573157 4.092344775463 23.24092078231002 0.4306226314741934
1652452468.3572578 4.095458114253357 23.24130198660237 0.43087608767679947
1652452468.757345 4.100871208516207 23.241443407068804 0.43092619166352897
1652452469.156219 4.102023854989282 23.2414645772694 0.43086465577158656
1652452470.356285 4.102394589867586 23.24104831930799 0.4306141889733371
1652452471.5574493 3.104539956529636 23.216941591322453 0.4375715857242219
1652452471.9575799 2.540723475493463 23.206113957995626 0.4365242924266365
1652452472.7563875 1.3316997559302381 23.177340941684516 0.4255171625142773
1652452473.156374 0.7474371335525226 23.16845387826147 0.42409738964995686
1652452473.5563972 0.11885810138615335 23.174051409096077 0.42245825110399526
1652452473.9564126 -0.45510829286590304 23.18076429425163 0.42445906315317544
1652452473.9564126 -0.45510829286590304 23.18076429425163 0.42445906315317544
1652452474.3564575 -1.059451177219036 23.19948379539043 0.4236769325168219
1652452474.7565303 -1.6201859872188058 23.216829518381367 0.4268071285957581
1652452475.5567467 -2.751686567332661 23.255050740632196 0.43515715098400404
1652452476.35674 -3.8015745973734445 23.296335908742417 0.4427129112683382
1652452477.1566126 -4.951726055021897 23.36715287182252 0.4556280980768599
1652452477.5566678 -5.529315803746729 23.4090082765982 0.4635111563791269
1652452477.956622 -6.1039375263575995 23.44919419731619 0.4777503745867886
1652452478.3565907 -6.700546254588889 23.478504632005947 0.48709605208291046
1652452478.7565749 -7.289640264316729 23.486192794124083 0.49598289445535804
1652452478.7565749 -7.289640264316729 23.486192794124083 0.49598289445535804
1652452479.156607 -7.883034786691348 23.485443760678358 0.5021360901347259
1652452479.556583 -8.461521598734114 23.485012734267137 0.510984473762237
1652452479.956621 -9.08363817099487 23.483471273348616 0.5131491476416352
1652452480.356625 -9.690430383693338 23.47945270828305 0.5165405597892658
1652452480.7566001 -10.268108072940604 23.482299475334163 0.5189181413614673
1652452481.5567465 -11.449991420317431 23.475791889672674 0.52459041286026
1652452482.3567657 -12.584972324587408 23.47884844189097 0.5396990870032408
1652452483.1567564 -13.79826411805061 23.477626708944126 0.5555323200504546
1652452483.1567564 -13.79826411805061 23.477626708944126 0.5555323200504546
1652452483.556852 -14.43085188149818 23.480153500115374 0.5556383794759018
1652452483.9568536 -14.995225298618394 23.481813953698786 0.5424331150795961
1652452484.3568282 -15.55916304267258 23.47916017780656 0.5315682646607206
1652452484.756837 -16.132257206665816 23.481295472360618 0.5243129797858823
1652452485.1568422 -16.66733389813223 23.452026107691328 0.5192702718504122
1652452485.556858 -17.12680839810428 23.385433956933856 0.5218990744235116
1652452485.956867 -17.530234372161427 23.256472746626123 0.5178189538753306
1652452486.3568594 -17.850620050562135 23.102118251398064 0.5216516636735625
1652452486.7568505 -18.147676183540888 22.87102639559731 0.5154655751344654
1652452487.556877 -18.681027373813237 22.234661409562225 0.5134866710882838
1652452488.3568838 -18.930264916366013 21.806211686271396 0.5093783126039548
1652452488.3568838 -18.930264916366013 21.806211686271396 0.5093783126039548
1652452488.758118 -18.98987891649979 21.742352466811138 0.5094245396482949
1652452489.158109 -18.98185184583549 21.637898084289965 0.5077930752701765
1652452489.5581524 -18.85638656008176 21.468871373499905 0.5086507891825647
1652452489.9581125 -18.699789490850883 21.340929585344043 0.5101616742919562
1652452490.3581197 -18.516937694674386 21.283272035973532 0.5117160065238491
1652452490.758089 -18.423373142610746 21.263631704210393 0.5165847699282464
1652452491.1580877 -18.148485528201633 21.371496862277557 0.5151201169444127
1652452491.5581236 -17.577167595317263 21.57058251967477 0.5176534307650454
1652452491.9582567 -17.000314751141225 21.792222044827206 0.5228272302510107
1652452492.358307 -16.50117331120745 21.974375667177757 0.5245871556144573
1652452492.757065 -16.079292316602984 22.10824492993198 0.5216113628887503
1652452493.1582344 -15.769227153172148 22.169495011079743 0.5234617836759375
1652452493.958224 -14.667773405321944 22.307814844046852 0.5446198455166164
1652452494.3582735 -14.035069283236393 22.33429444911484 0.5602961103711388
1652452494.7582304 -13.363673315706267 22.3155395087054 0.56586838614022
1652452495.1582005 -12.72871579190055 22.24662295833114 0.5601812497666109
1652452495.5582209 -12.392116578869242 22.189076751401334 0.5478666334460308
1652452495.9582973 -11.823499467567501 22.097663459195864 0.5351976560056754
1652452496.7582085 -10.67506793815177 21.879301794832955 0.5326311586825805
1652452497.1580818 -10.059107534702123 21.741582729269695 0.5316296816245419
1652452497.5581045 -9.466697641093079 21.609448213233286 0.5328046089987196
1652452497.957986 -8.879314387383705 21.461816655100947 0.5258497408639082
1652452497.957986 -8.879314387383705 21.461816655100947 0.5258497408639082
1652452498.3581126 -8.290648438750805 21.31679582807432 0.5206764557501934
1652452499.1581018 -7.118846179293898 20.990798749010654 0.5125138177322196
1652452499.5581162 -6.540421676297705 20.82561835594324 0.506749256797941
1652452499.9580195 -5.971766484434296 20.683679068704194 0.5009297380707204
1652452500.358097 -5.397199733897589 20.556823944400993 0.4930235368752314
1652452500.7580893 -4.845801308889235 20.45695458333858 0.4895696301832336
1652452501.1581085 -4.26337732341079 20.36227701654431 0.48567088220450233
1652452501.9581692 -3.083527889803608 20.229099430622057 0.46803937612521723
1652452502.758147 -1.8817294083872944 20.119016170457147 0.4464118193526357
1652452503.558093 -0.7002385050436406 19.99743354749455 0.4348520902059738
1652452504.3583937 0.4788733683142117 19.85846230435488 0.4348383071495329
1652452504.758358 1.0522516171452363 19.773524153552817 0.4342903714524441
1652452505.1583722 1.620757123311918 19.694100679386477 0.43623303664865654
1652452505.5584586 2.227617158804101 19.59137063330329 0.43940656544791395
1652452505.9584491 2.7972043196400813 19.505627362726916 0.4426243415513889
1652452506.358473 3.4129891376692414 19.40348227492228 0.4413506730469708
1652452506.7585106 4.028163918034161 19.300450635214478 0.43410452198594524
1652452507.1574159 4.594566697694659 19.210021463389698 0.42676231862769964
1652452507.5573344 5.202791647956292 19.087593824485154 0.42149170544959724
1652452507.9585712 5.709133007993498 18.986051272360235 0.4207558201251393
1652452508.3585744 6.100372968344248 18.831192735205548 0.4145182987949445
1652452508.758566 6.569648632487538 18.561767991469427 0.4119144054925241
1652452509.15857 7.003396713320662 18.262971340528093 0.40959791865884143
1652452509.5585725 7.393111291979199 17.894058176121437 0.4151938765647746
1652452509.9586396 7.738293353622957 17.505318750337928 0.41941527618740587
1652452510.358602 7.968004574767203 17.128330120279294 0.41614175924648084
1652452510.7586648 8.067093151069741 16.804920551404255 0.41093133037623897
1652452511.1586227 8.064618741567061 16.573295566082827 0.4145121443340033
1652452511.558616 7.948664965972893 16.26826276093529 0.4176310320753618
1652452511.558616 7.948664965972893 16.26826276093529 0.4176310320753618
1652452511.9605038 7.727421742468503 15.923780551043013 0.4177886234755162
1652452512.3592365 7.141914620516195 15.454509508687588 0.4282407908307125
1652452513.159076 6.0535918745856305 14.915459202064676 0.4277455001441439
1652452513.557825 5.538267398034233 14.819449060147226 0.42256579471650746
1652452514.3578238 4.33635841996057 14.95272438047092 0.42813814465257916
1652452514.7578533 3.765061245104265 15.078581499580729 0.44515227432345345
1652452515.1578805 3.17508767556587 15.243575480947351 0.45524544397422284
1652452515.5578864 2.6013355104298928 15.409419321598245 0.4644134576135421
1652452515.9578795 2.0410048969237478 15.57600929727204 0.47121162193964183
1652452516.3578503 1.4394427647309982 15.724920576600768 0.4699649137017965
1652452516.3578503 1.4394427647309982 15.724920576600768 0.4699649137017965
1652452516.7579868 0.8909089946098272 15.826329780398748 0.46579462011236594
1652452517.1586254 0.3919233028980732 15.905752762656402 0.4665033421439804
1652452517.5586307 -0.11929768120140655 15.937230568143093 0.46291463323972926
1652452518.3585815 -1.0881922919009395 15.862581409202528 0.4703234689515595
1652452518.7585745 -1.6249717241148884 15.735021144571109 0.4744221136183415
1652452519.1585698 -2.100333226564063 15.567966627773174 0.4853826748325989
1652452519.558641 -2.6020455806204317 15.316079963256177 0.4881700024494061
1652452520.3585582 -3.676528730002114 14.753619247671368 0.5045085800615592
1652452521.1586168 -4.716527747271899 14.151576784213821 0.503413038517472
1652452521.1586168 -4.716527747271899 14.151576784213821 0.503413038517472
1652452521.9586198 -5.709047767741837 13.498457757098178 0.508013575681173
1652452522.3585734 -6.180230173957188 13.181694708736215 0.5167910604431264
1652452523.158574 -7.166954491660509 12.49727224045174 0.5308475096135392
1652452523.558609 -7.654074587537744 12.150539992845621 0.5381710629514395
1652452523.9585772 -8.141284022262317 11.788540002315859 0.5402891155845894
1652452524.3586068 -8.624270865826674 11.423993579866133 0.5399669087101353
1652452524.758561 -9.098322680335341 11.052307635044444 0.5364863100953182
1652452525.9586313 -10.626596513588726 10.059799615615027 0.5472359602470154
1652452526.3584719 -11.13056343809242 9.762725574865692 0.5474307686679746
1652452526.7585073 -11.625469674499644 9.470270757443512 0.5445858155836785
1652452527.958573 -13.143723391656728 8.569485638956163 0.5428222467952526
1652452528.3585677 -13.664240541379911 8.279236460205759 0.5449729105594031
1652452528.3585677 -13.664240541379911 8.279236460205759 0.5449729105594031
1652452528.758593 -14.15495840860796 8.00118205091603 0.5405834425037689
1652452529.158622 -14.639738132503627 7.741829867060263 0.5351011688261583
1652452529.5584815 -15.114200419818435 7.483718241745773 0.5277849625244491
1652452529.9584603 -15.597724542153703 7.234710052557738 0.5229755112783191
1652452530.3584957 -16.07431352367982 6.980076013204408 0.5177247335626075
1652452530.7583332 -16.537217066233143 6.7469789130463385 0.5079747026333502
1652452531.158332 -16.930060248379668 6.5356346232682565 0.4962080814342952
1652452531.5582376 -17.265107821476654 6.444755528944843 0.49103369409290337
1652452531.958228 -17.673521118255515 6.383253659907822 0.4806170024999778
1652452532.358233 -18.187906638504774 6.377972652563302 0.46858566620759295
1652452532.7582371 -18.667881300004527 6.409428116467232 0.4548988504489854
1652452533.1595004 -18.993492450542615 6.453556228683959 0.4485854169897901
1652452533.559792 -19.221649319191837 6.544228776781049 0.4566034876840893
1652452533.9598117 -19.42765764575651 6.797840489737408 0.45495161607975815
1652452534.35974 -19.565745161180907 7.077917723664744 0.4610335407240865
1652452534.7598627 -19.66842908576345 7.408290877274678 0.46769373437289974
1652452535.159909 -19.689786982670004 7.816287212518253 0.4715316042376768
1652452535.5599225 -19.67427279873472 8.392283927133462 0.4779961031067983
1652452535.959819 -19.601346781108997 8.924965291855425 0.4829194960191463
1652452536.758324 -19.28379858095185 9.978780246240477 0.48931529485004
1652452537.157578 -19.04447008419387 10.555102926587038 0.49029372894084605
1652452537.95982 -18.547007802447048 11.504854950547825 0.5060713006476268
1652452538.359841 -18.251076897139455 11.949132199487208 0.5042686184948383
1652452538.7586684 -17.890176863849916 12.417678045139331 0.5212242794385191
1652452539.5586097 -17.067418114915014 13.337093519851916 0.5572730842659132
1652452539.9586065 -16.632668614928892 13.778257390834884 0.5655412041833413
1652452540.3585846 -16.163535515922632 14.208088035762483 0.5672086692034009
1652452540.7586482 -15.675538913096222 14.603606364010748 0.571791438289506
1652452541.1586378 -15.16645625518845 14.978794817153421 0.5672433601177082
1652452541.5585928 -14.690430531169838 15.339852042079237 0.5625842535870094
1652452541.9586146 -14.155559991717606 15.685038077993676 0.5544428158724255
1652452542.3586128 -13.624921723588491 16.04087998069687 0.5430040677947122
1652452542.7586317 -13.133182716982478 16.367536579580577 0.5282019354397589
1652452542.7586317 -13.133182716982478 16.367536579580577 0.5282019354397589
1652452543.1587942 -12.657453260872172 16.684267133467046 0.5173176189545351
1652452543.5591204 -12.17836127160148 16.990767213748043 0.5225109196338106
1652452543.9591117 -11.689605255709054 17.294160095955316 0.5308456169566866
1652452544.759081 -10.658772120572815 17.916823835368316 0.5547940711240947
1652452545.558959 -9.593038492849626 18.55174234926716 0.5489870720277702
1652452545.9591272 -9.076599917826158 18.86004659813091 0.5396837532106386
1652452546.3590832 -8.555518232646323 19.164502589827364 0.5297280407854275
1652452546.7591178 -8.040259663663864 19.46226283521221 0.5245497753324071
1652452547.159131 -7.510098571981236 19.757079055322055 0.5197132429301735
1652452547.559096 -6.990050578187329 20.050073686545645 0.5156723943591224
1652452547.9591048 -6.454753788857048 20.34607649624908 0.5094766285200825
1652452548.3590665 -5.924610920655052 20.635428966417102 0.5008092307737482
1652452548.758958 -5.405532268644417 20.932548909487096 0.4893383059543111
1652452549.1589522 -4.87535759333581 21.20960382886299 0.48232595356696495
1652452549.5591097 -4.335620861466477 21.48867505409442 0.4746576886351149
1652452549.9590898 -3.7975077338966803 21.760263923563844 0.4659426410361966
1652452550.359134 -3.270943317524539 22.02057247073988 0.45672637169161884
1652452550.7590995 -2.7179293715990043 22.28499127182471 0.44719554255966554
1652452551.5591311 -1.6487676718779902 22.795784961891073 0.42725753687056617
1652452551.959087 -1.109629269105916 23.040593380391478 0.42140208638035725
1652452552.3592331 -0.5652627385976081 23.28916103406376 0.41894430956000484
1652452552.759216 -0.05300882811334295 23.506179043113217 0.4220080557703481
1652452553.1592352 0.5048528880676952 23.74686747152571 0.4267458586780527
1652452553.5592115 1.0666425559774448 23.98501321131734 0.4287365561313705
1652452553.9592214 1.5923620215939356 24.22252425744091 0.4255070469073513
1652452554.3592224 2.138690018566188 24.462534948586164 0.42167938217024353
1652452554.7592223 2.7042349605245315 24.700677469908996 0.41651917600061233
1652452555.159274 3.247830452194292 24.91416122329096 0.4159668462220073
1652452555.5592053 3.819484333945043 25.131547627167098 0.4117761084591246
1652452555.959183 4.38403409443327 25.329025440674222 0.41378782109968715
1652452556.359063 4.94688209820012 25.526647194430144 0.41132783299992076
1652452556.7590966 5.523810338637012 25.719814746897175 0.4070659490307943
1652452557.158956 6.085823177221023 25.897172453472187 0.4042927499003835
1652452557.5588474 6.64997980659165 26.079119717447583 0.4026904774722718
1652452557.9588747 7.212990110234299 26.24746160847758 0.40634092171624536
1652452558.3588686 7.7945658400254025 26.413223031230363 0.4097469860961037
1652452558.7588797 8.370700743092536 26.583501015296992 0.4111523417808698
1652452559.1590025 8.917541124650853 26.747692759838714 0.41233279828301167
1652452559.5590925 9.49064300251565 26.96622328361313 0.4080858497831873
1652452559.9591007 10.057157861210214 27.193186238518127 0.39449739054970884
1652452560.3590865 10.58542195425079 27.404864010149474 0.38131664361248635
1652452560.7590907 11.12892066273272 27.64685500726107 0.3718974497948238
1652452561.1589885 11.678597515619755 27.909413032324714 0.36081212302156185
1652452561.5591445 12.185653144391553 28.15027638881601 0.35174994112176317
1652452561.5591445 12.185653144391553 28.15027638881601 0.35174994112176317
1652452561.95914 12.694189261168777 28.399830830638333 0.34815882269522497
1652452562.3590856 13.225501108868613 28.6588312937374 0.3482072180817148
1652452562.759062 13.723831753691265 28.920682124899027 0.3508401346140217
1652452563.1588757 14.224398582615864 29.184370670459643 0.3562249355275503
1652452563.9588215 15.241111294399541 29.78302439325206 0.3748193617172231
1652452564.359825 15.731493202516987 30.10523181075519 0.3756133835063052
1652452564.7586298 16.190666719756113 30.4218952690596 0.38499948769592196
1652452565.1584613 16.57164770716314 30.710571620396195 0.394519096909155
1652452565.9584575 17.194674602661575 31.389498171562263 0.43256272252367006
1652452566.3597465 17.414923434424743 31.756556319143932 0.4450006731093207
1652452566.3597465 17.414923434424743 31.756556319143932 0.4450006731093207
1652452566.758512 17.56183937185822 32.031985537876636 0.4596463594806065
1652452567.1586466 17.59184188567506 32.20665922032003 0.4604454690588257
1652452567.558565 17.589084654461796 32.383180826514206 0.4558796037108338
1652452568.358587 17.447283516442745 32.69140737344922 0.44669141219664166
1652452569.1618114 16.7571265512206 33.269197061418204 0.4130003035275704
1652452570.357351 15.135039083672924 33.3121638301222 0.39281190417180056
1652452570.7573328 14.64261934136238 33.16668328310926 0.3874246341799824
1652452571.157341 14.052063351333562 32.991433486156076 0.3824644364846138
1652452571.5572708 13.502060479495908 32.86370160917423 0.37388592113809543
1652452571.9572265 12.919857933451278 32.757030926493314 0.3576284355140356
1652452572.357224 12.370593628553477 32.7019752142688 0.3474979070148263
1652452572.7572277 11.818413463089179 32.69987183020752 0.3416354742767312
1652452573.157198 11.256453758829869 32.75155939917445 0.34556419157985435
1652452573.557214 10.643318564808322 32.85132903140402 0.3507234498497441
1652452573.9572182 10.02444078021521 32.98044115712675 0.35411773800990415
1652452574.3572037 9.442598722643645 33.12750853655236 0.3520851196237312
1652452574.757225 8.885961429720338 33.28173337415671 0.35552082965966303
1652452575.1572487 8.318610373674575 33.44689697373553 0.3589503195425534
1652452575.9572167 7.150626873566073 33.78749281023578 0.36062134890932623
1652452576.3572574 6.577769040646764 33.92410661601569 0.35502330662156106
1652452576.7573967 6.0154764808505234 34.035193195122545 0.35651516743831585
1652452577.1573546 5.438723507617392 34.1529616261691 0.3569568795949841
1652452577.5573404 4.840182322711302 34.27624022391997 0.3572379183444729
1652452577.9573445 4.273834720846628 34.397446853444464 0.3611261564031408
1652452578.357353 3.6947390799380333 34.5142385738829 0.36362036993347496
1652452578.757424 3.083469807555511 34.6347227315696 0.36543788514495507
1652452579.1573565 2.4916682589143897 34.75027401311699 0.36306191537928995
1652452579.5586145 1.9039609993466124 34.88169930780904 0.36118937901993375
1652452579.9586089 1.3435210047714694 34.99682236812605 0.3617800283694576
1652452580.3586392 0.7639879903547169 35.12458330200977 0.36337783421895065
1652452580.3586392 0.7639879903547169 35.12458330200977 0.36337783421895065
1652452580.757208 0.1994216776661294 35.24260279954031 0.3719849836800156
1652452581.559082 -1.0038692848872535 35.49142275468903 0.3836736186316939
1652452581.957844 -1.5578717319611655 35.602407185870064 0.3882424311609032
1652452582.7578428 -2.6382315989589893 35.78017326678389 0.41619759096791875
1652452583.1578252 -3.2482937282032363 35.86340066340244 0.4371831455043823
1652452583.9578102 -4.4863020258159905 35.9833722608327 0.43309344076874473
1652452584.357714 -5.028000068827929 36.03314773761802 0.4327853505384476
1652452585.1577082 -6.246701894024741 36.14554196557079 0.44414574338648105
1652452585.9577765 -7.488457394503379 36.23841490370116 0.42754224583017564
1652452586.35777 -8.049378481503672 36.288696101917154 0.4246892675734744
1652452586.7577627 -8.624407709540847 36.337373835342134 0.4284294382529408
1652452587.1577427 -9.219692255947669 36.38225493373929 0.43673616871703713
1652452587.1577427 -9.219692255947669 36.38225493373929 0.43673616871703713
1652452587.5577242 -9.81535244023273 36.429578123015744 0.4440443019675362
1652452587.9577968 -10.406322675985892 36.46163886556266 0.4459595089534186
1652452588.3577125 -11.05219949240532 36.498088195628924 0.43652193701240594
1652452588.7577417 -11.610079586308455 36.529869738690905 0.4381849464450603
1652452589.5578077 -12.740608486708789 36.635764507448194 0.4705868108464411
1652452589.9578638 -13.390061527329644 36.70607215000881 0.4820273634621581
1652452590.3578682 -13.998365075536947 36.78652130467706 0.48200536005226635
1652452590.7578628 -14.626490624915705 36.90906737393989 0.4760828695294915
1652452591.157839 -15.2752496989567 37.053500663574695 0.4580548615618575
1652452591.5578263 -15.874449540670117 37.244388277637114 0.4281579077874238
1652452591.957825 -16.433065652261636 37.50294549553261 0.3916341872353937
1652452591.957825 -16.433065652261636 37.50294549553261 0.3916341872353937
1652452592.3578546 -16.923304325450193 37.796088558204566 0.3589875894485558
1652452592.7578657 -17.32262594980654 38.12428324380317 0.3517425582134297
1652452593.1578124 -17.684617899493226 38.51187824444793 0.3549887715582106
1652452593.5577114 -18.05386208439021 38.96290380508077 0.3636429220114043
1652452593.9578648 -18.324563899288908 39.38976919433396 0.3743868730950315
1652452594.3578348 -18.539868784618317 39.81663370548228 0.37974346941946435
1652452594.7577348 -18.696157656216016 40.35177937806815 0.38630386703422953
1652452596.3575735 -18.899000594697608 42.778880330864574 0.4009877591473692
1652452596.7576134 -18.79903255792672 43.39737664576773 0.39841519204997955
1652452596.7576134 -18.79903255792672 43.39737664576773 0.39841519204997955
1652452597.1575952 -18.65460198462388 44.01060450656782 0.39180469413967983
1652452597.5576105 -18.508338492330342 44.603708280409634 0.38361647876297167
1652452597.9587078 -18.39544644655444 45.12478917271083 0.3749705835668543
1652452598.358717 -18.331713882652995 45.60115535575315 0.36970690976897147
1652452598.758743 -18.29567447807172 46.10381827920911 0.36495483544192875
1652452599.158765 -18.29063464607291 46.62584277036519 0.3619953918208324
1652452599.558738 -18.32626771533564 47.14287545401361 0.35321780583431794
1652452599.958711 -18.420355256980844 47.66624252257236 0.3437551729271642
1652452600.3587203 -18.53144147260914 48.203778868220105 0.32706135238313055
1652452600.7587717 -18.633889342240437 48.78667010540843 0.31322161768532336
1652452601.5587206 -18.65763940909065 49.608588830161644 0.31111685707698505
1652452602.7578619 -18.441793692436384 50.48196314979203 0.3110962179684939
1652452603.9575121 -17.734513005757822 51.44142807985564 0.2930375011636644
1652452604.3588703 -17.05319562593772 51.53899070146164 0.3064921212754368
1652452604.7589102 -16.64334393514874 51.523072896396485 0.324361565119957
1652452605.158826 -15.997667541324104 51.41764561102879 0.34605689976478415
1652452605.9587092 -14.859326408898708 51.123571670733384 0.3645066897147148
1652452606.3587344 -14.280147951314637 50.97940388050335 0.3800139157925192
1652452606.3587344 -14.280147951314637 50.97940388050335 0.3800139157925192
1652452606.758718 -13.709684331500533 50.85810128425292 0.3895047244613366
1652452607.1588812 -13.182809746471472 50.75728757254716 0.40224712129206747
1652452607.5588856 -12.6026319535086 50.67485177790514 0.40710906045144535
1652452607.958862 -11.996559049890909 50.59451188691163 0.4121529660276131
1652452608.3589206 -11.406112033818493 50.51694048144674 0.41535923171905614
1652452608.758878 -10.8054323232432 50.46915911566466 0.4104532603078139
1652452609.1588776 -10.209341430738032 50.43230756757084 0.4054010539485804
1652452609.5588665 -9.641863158084066 50.4172368963337 0.39260538801762473
1652452610.3589237 -8.446367623483383 50.416991524937934 0.3707768830990596
1652452611.1588538 -7.245943782969433 50.426437003256 0.3621228181683003
1652452611.1588538 -7.245943782969433 50.426437003256 0.3621228181683003
1652452611.5589173 -6.665331665168728 50.436948657491826 0.36244198147482765
1652452611.9588873 -6.090988758893235 50.44051506542798 0.3628455703350131
1652452612.358861 -5.501394873749728 50.45410075957236 0.36701878165116764
1652452613.1588671 -4.226776849653243 50.460716001314594 0.3627428160970534
1652452613.9578316 -3.0111708149253533 50.467855164521126 0.3357585764453518
1652452615.1578484 -1.1512916239903241 50.43811179126709 0.280856400617416
1652452615.5578408 -0.4197995776548374 50.36599887573511 0.22738072803518639
1652452615.9578753 0.036121883333928864 50.295046567703864 0.22472913042140252
1652452615.9578753 0.036121883333928864 50.295046567703864 0.22472913042140252
1652452616.7578497 1.020058468455075 50.173396134805316 0.2756664147328731
1652452617.1578739 1.5939008428760373 50.14175593546433 0.30684421283597557
1652452617.5578804 2.227782799511075 50.12334547512752 0.3171207458191691
1652452617.9578772 2.8586189887224354 50.10277532360272 0.3140765645668975
1652452618.3578608 3.4935449855003675 50.08589437118443 0.2998771483349797
1652452619.1591067 4.6407288037856995 50.064011881145404 0.2785016973711308
1652452620.3590024 6.418619384384285 50.05376522153954 0.28416373368818565
1652452620.3590024 6.418619384384285 50.05376522153954 0.28416373368818565
1652452621.1587667 7.631885695606698 50.063397600277995 0.2856436137812666
1652452621.5587325 8.24997567008734 50.07792481727523 0.2784891195173493
1652452621.9587333 8.85819551926951 50.11441349973518 0.2658808032282857
1652452622.7588663 10.044471829334793 50.188769680211095 0.22408346369707943
1652452622.7588663 10.044471829334793 50.188769680211095 0.22408346369707943
1652452623.1589227 10.59840505565169 50.207786862220956 0.22710464626004287
1652452623.5589614 11.165184657686012 50.23589486208207 0.24059323294709464
1652452623.9589665 11.728972523911805 50.289686183467005 0.25151962914853465
1652452624.3589885 12.292190019551168 50.350430102201045 0.26607429017304307
1652452624.7589457 12.908158864246312 50.40592639738802 0.27769281143964675
1652452625.158879 13.494115961738522 50.43494046568064 0.28760093869710895
1652452625.9600947 14.693706964200102 50.51784974910819 0.30137670967870284
1652452627.1613414 16.350663975057042 50.72711062456531 0.3268568417643586
1652452627.1613414 16.350663975057042 50.72711062456531 0.3268568417643586
1652452628.3597271 17.980238880585976 50.72601543564466 0.43333050827043884
1652452628.7597504 18.55831222464977 50.755594845755176 0.4873366464274992
1652452629.1597502 19.104556482812313 50.807798439873686 0.5185821381658307
1652452629.5583203 19.61055038858624 50.90973200279548 0.5418902669743976
1652452629.9583158 19.968833800736334 51.0059205844449 0.5492989180212093
1652452630.3579834 20.12665238307104 51.055963004855265 0.551470611146074
1652452630.759205 20.234878906596247 51.12688772061147 0.5515361453617349
1652452631.1593363 20.33636989973449 51.25112363284978 0.5534893871616838
1652452631.9592748 20.612674108535693 51.8559325016261 0.5580928692972627
1652452632.3595738 20.65073436602752 52.19322687074951 0.5597889655484869
1652452632.758469 20.52732878456372 52.64599712951517 0.5614404219606715
1652452633.1584852 20.352033625275467 53.08186458211651 0.5601428624367508
1652452633.5584543 20.11323348752526 53.42471473211508 0.5578331862225717
1652452633.958446 19.91942043645366 53.64308329794857 0.5542682784786124
1652452634.3586664 19.484442915830883 53.75111775744514 0.5464227356490757
1652452634.7586148 18.975980667289292 53.81026883111694 0.5327448951133692
1652452635.1598816 18.388073954662147 53.76936877590382 0.5019769362119694
1652452636.3598762 16.778912539995112 53.2006147031043 0.3198305623999631
1652452636.7598565 16.562324255640434 53.127846129704956 0.3031500339987494
1652452636.7598565 16.562324255640434 53.127846129704956 0.3031500339987494
1652452637.1601062 16.432694341789936 53.097091379660405 0.3017060590804643
1652452637.560093 15.974360382200166 53.007743316019415 0.29760718077445414
1652452638.3601995 14.733046269633684 52.79253655080359 0.2920136998605501
1652452638.7601943 14.14201610834461 52.750654012459236 0.2840784632027544
1652452639.1602032 13.513696411807956 52.7592122723677 0.26977573200700944
1652452639.960394 12.339501304346635 52.814313266958045 0.2407809153629091
1652452640.360421 11.718970812666328 52.880770858486976 0.23423839418423278
1652452640.7603872 11.144841562734085 52.94786203942707 0.2345583135197186
1652452641.1603703 10.528736903412144 53.031864708758675 0.2280934033506347
1652452641.560367 9.913365483367114 53.11646125822184 0.2157533330535123
1652452641.9603975 9.367681269664908 53.186438906220054 0.20590797215756831
1652452642.3603916 8.784211336545509 53.28798199060762 0.20776612004426406
1652452642.7603672 8.176157319497394 53.42618879629271 0.21011193926047653
1652452643.1603968 7.598349097490607 53.60202644743436 0.21383726548886345
1652452643.5604093 7.098224377851454 53.77994959108888 0.23053292721599997
1652452643.9604385 6.550328811494783 53.936075154966744 0.25453692543638745
1652452644.3603988 5.995386331684361 54.04618542941527 0.2692082521068093
1652452645.1603925 4.82684115071254 54.20050816324891 0.28568520764794353
1652452645.9605281 3.6778759233340703 54.32916650219655 0.29850856690978955
