1652452711.3546007 0.04464167567720523 62.9455757204057 -0.19214354684486173
1652452711.7546003 -0.554896138001677 63.016098887481206 -0.19501980638266428
1652452712.1546044 -1.1221855319533844 63.09127712947606 -0.19506716999124307
1652452712.5545948 -1.6875935407785363 63.161878312791956 -0.1854996559399778
1652452712.9546003 -2.2238230765659814 63.23017979462679 -0.1540741476922711
1652452712.9546003 -2.2238230765659814 63.23017979462679 -0.1540741476922711
1652452713.3546674 -2.8212001433321987 63.314157103568434 -0.14517452434101566
1652452713.7559175 -3.42011367747169 63.39397186339437 -0.13963250750726028
1652452714.1546412 -4.01238453902959 63.467634960099375 -0.13343415801057007
1652452714.5546494 -4.597431308017455 63.53115035111384 -0.11946576763973626
1652452714.9546192 -5.202366839614882 63.596179929106114 -0.11703104422120522
1652452715.3546038 -5.788487821266585 63.65532287114783 -0.10583673555927942
1652452716.5544775 -7.566855884587845 63.835709048749656 -0.08632178398319915
1652452716.9545438 -8.126853068347017 63.89190943207056 -0.06004671579910431
1652452717.3546197 -8.708550343776189 63.94895917286442 -0.04337248322910073
1652452717.754614 -9.292864695389042 64.00250514262876 -0.022897369656439986
1652452718.154607 -9.887063832752446 64.05619421597652 -0.006659246318145462
1652452718.5546088 -10.510627897835903 64.11269528821863 -0.006397737890548982
1652452718.9545944 -11.12314768931057 64.17204628969218 -0.008307514997740462
1652452719.754617 -12.275797461502037 64.29244576006056 0.020565834967051666
1652452720.1546106 -12.884572113326897 64.35296526622038 0.024961387868315976
1652452720.5546322 -13.505357390892115 64.41550683083715 0.019933818830825067
1652452720.954759 -14.124017148785697 64.48369797050361 0.007367925590139268
1652452721.3547456 -14.731520056106625 64.54764693668926 -0.0018159047093228298
1652452722.1547563 -15.971207157148065 64.66695061991977 -0.03364931102807389
1652452722.5547404 -16.58720326193304 64.72464185095663 -0.05610435199753064
1652452722.5547404 -16.58720326193304 64.72464185095663 -0.05610435199753064
1652452722.954792 -17.141551392982954 64.79095004875083 -0.05271371649597645
1652452723.3548048 -17.662339268984887 64.87690635589766 -0.03271448691299722
1652452723.753548 -18.089915953402148 65.00232204521816 -0.019244323148563114
1652452725.7534728 -19.44935538235167 66.41434508613554 0.010825547392954937
1652452726.153594 -19.503121354156377 66.38648765157399 0.02616956695557221
1652452726.5548413 -19.75274598569839 67.50618400406671 0.03169626533476527
1652452726.9534633 -19.79878583488766 67.87832962212985 0.030440043736670946
1652452727.3545995 -19.861133837621416 68.45148076910851 0.033520104183304644
1652452727.7546914 -19.85829775992852 69.017973725942 0.03082354946745816
1652452728.1546783 -19.807041630020635 69.57841705576999 0.03608061211427707
1652452728.5535064 -19.72163153361584 70.14744889185546 0.0304662397120474
1652452728.95363 -19.608529488870694 70.71451008738029 0.02651482369225633
1652452729.3536258 -19.47117689517271 71.27341421495632 0.023590956548136727
1652452729.7536058 -19.312015339197835 71.82603421356296 0.02581461935059376
1652452730.552351 -18.89899761483987 72.85507345714947 0.015540708163267886
1652452730.9533157 -18.523392819987443 73.61168769552563 -0.002928254137617381
1652452731.3545158 -18.356912724951854 73.981591016337 0.0023441413315649917
1652452732.9541812 -17.763683286344296 75.89443036075996 -0.015327890494179569
1652452733.3541803 -17.76148066683229 76.38590027415525 -0.017008818586835645
1652452733.7541742 -17.795473071209678 76.95738314004572 -0.028224035364738775
1652452734.15418 -17.897039603466226 77.53876206972278 -0.03298750323762226
1652452734.554255 -18.008976748132 78.14690743437589 -0.04031028994539973
1652452735.3543046 -18.215068088192645 79.3276190507851 -0.050601864137140934
1652452736.1543279 -18.297597331115625 80.4427414082545 -0.04173242274228639
1652452737.3542402 -18.206517254832484 82.19161895532457 -0.03060906280669523
1652452737.754308 -18.164822771995865 82.77773622108934 -0.026122820534609653
1652452738.1543043 -18.05707344142953 83.3102627579629 -0.029767710498153466
1652452738.5542986 -17.90569091312132 83.71165293587646 -0.03192096436636069
1652452738.9543016 -17.698447170749354 84.029012094586 -0.0401015616499692
1652452739.7556121 -17.065444352116238 84.69529377814271 -0.043642366794455434
1652452741.3561552 -15.366572838758671 84.99851183918523 -0.017405976064924833
1652452741.756182 -14.890505425854826 84.89103719911219 -0.015868351448521195
1652452742.154858 -14.365019469940158 84.73278230235091 -0.01052307930719043
1652452742.9548419 -13.321237098553667 84.25949577614662 -0.009586375403214165
1652452743.3548887 -12.796652788379355 83.95546591767487 -0.022789364997977263
1652452743.3548887 -12.796652788379355 83.95546591767487 -0.022789364997977263
1652452743.7536404 -12.283019583571651 83.63604051360886 -0.03749649342211539
1652452744.1545784 -11.752026455372892 83.35589121397953 -0.0471306078111213
1652452744.5546298 -11.2529573724889 83.13373079906975 -0.0705176920999186
1652452744.9546363 -10.813015881590054 82.9731276584389 -0.07237444176301272
1652452745.3546422 -10.252942420217089 82.78965247652843 -0.09089125971629894
1652452745.7546465 -9.621681401659082 82.6437734310836 -0.1243628210298138
1652452746.5534973 -8.371743388382662 82.58268736580033 -0.20895760240021433
1652452747.7545984 -6.915548277542612 83.02858679368539 -0.18573371215342663
1652452748.1545997 -6.343113727649872 83.32398932003659 -0.19398313852102728
1652452748.5545967 -5.808148115644059 83.58736027831566 -0.19905283963315692
1652452748.5545967 -5.808148115644059 83.58736027831566 -0.19905283963315692
1652452748.954703 -5.2640932148036015 83.79124409356854 -0.20920470202654917
1652452749.3546364 -4.706484946758003 84.02241561219053 -0.2224692672717684
1652452749.7546592 -4.183276130966142 84.26097954483755 -0.2248106030540837
1652452750.554621 -3.123008072283035 84.78595715341842 -0.21310587013275484
1652452750.954605 -2.598368468499821 85.0493975879365 -0.2050048075631212
1652452751.3546636 -2.068558315956615 85.32503496139778 -0.1979740485983575
1652452752.554581 -0.48046061288302866 86.13179340909882 -0.18157886196254863
1652452753.35465 0.5971257226109259 86.61574125003145 -0.1674426254720151
1652452753.35465 0.5971257226109259 86.61574125003145 -0.1674426254720151
1652452753.7546487 1.1575090797373093 86.85379401813253 -0.17145134738378712
1652452754.154651 1.690837340279984 87.08279353370611 -0.16614526005885558
1652452754.5546422 2.2589892730305934 87.32381426028695 -0.16746092723376263
1652452755.3546634 3.3521585660737543 87.7788893579218 -0.18705292887657862
1652452755.3546634 3.3521585660737543 87.7788893579218 -0.18705292887657862
1652452755.7546504 3.860027158822888 87.98085883470877 -0.19392044206660206
1652452756.1546319 4.3760424820886 88.17005622555169 -0.20148980195552285
1652452756.5546274 4.924209695067958 88.3816007500306 -0.20650117160441375
1652452756.9546216 5.4780681819091015 88.58208751774845 -0.20904138322310203
1652452757.3545995 6.022474623584948 88.79243878932094 -0.20630103264821317
1652452757.7546673 6.577635801376296 89.00400481321817 -0.20339099838829686
1652452758.1548808 7.10403525040271 89.21707913722352 -0.1891467272846531
1652452758.5549028 7.627925936586635 89.41030989966275 -0.16865963328873987
1652452759.35487 8.7370605192907 89.80452786337167 -0.134407252882938
1652452759.754883 9.316216941611032 90.0384522052049 -0.12613927702742958
1652452760.1548746 9.857118814079882 90.30885215897139 -0.11693999382855558
1652452760.5549266 10.35609090892109 90.58116059292031 -0.0973423719996577
1652452761.354914 11.425347251353365 91.21987512132984 -0.08406872822553868
1652452761.7548985 11.905689985594194 91.55139748562891 -0.0753497750694418
1652452762.1548877 12.356775679142018 91.89377356964681 -0.05423940204140751
1652452762.5548892 12.809696288512058 92.24626703203778 -0.030334678488130096
1652452763.3548586 13.734611784210841 92.93396944058722 0.01898100617851403
1652452763.7548444 14.207027789618174 93.21729665603979 0.03277619984766994
1652452764.1548471 14.637783282623708 93.51677522131456 0.05809064443893036
1652452764.5548565 15.14773981636526 93.85743417965698 0.0774102772155668
1652452764.9548626 15.64274632511546 94.2098514577696 0.09215600151577777
1652452765.3548703 16.068898644253913 94.60638064455566 0.11519010957438194
1652452765.75361 16.498529048194023 95.0164688008019 0.13533561513829806
1652452766.1536126 16.925142137720997 95.47012054287107 0.15189733868698352
1652452767.35378 18.174801315609614 96.86587474735197 0.16524344440143596
1652452767.7537434 18.570833451656434 97.27375592655517 0.1697825948783158
1652452768.1538136 18.951885996751763 97.64625440950346 0.19148707180280325
1652452768.5537148 19.33809837807219 98.02442519724616 0.21247829222600137
1652452768.953575 19.708177906236152 98.4103875640806 0.22873209908871506
1652452769.353593 20.07907938914183 98.78340667675312 0.243771501959022
1652452769.7536395 20.43628726016646 99.17713659521708 0.2654834317173435
1652452769.7536395 20.43628726016646 99.17713659521708 0.2654834317173435
1652452770.1536736 20.76605790793286 99.6026147442189 0.2871321122736592
1652452770.5536509 20.917888511807732 99.94485103792516 0.2998202739608063
1652452770.9549062 20.998298838092374 100.27418754590664 0.30383775966239085
1652452771.353798 21.048706256864897 100.58788108936234 0.30376975144965357
1652452772.1537485 20.910347807405614 101.15773496865626 0.3065177336228307
1652452772.5538554 20.745990257027557 101.47135869147951 0.30351227027156824
1652452775.3557622 17.073257736954375 103.43605613680128 0.19091411905625286
1652452776.1557555 15.784138105008083 103.58503043372667 0.14832501997443048
1652452776.9545093 14.584659654277807 103.65571104268723 0.14455557964865184
1652452777.3544922 13.993849782334088 103.65545861685749 0.14893735822337617
1652452778.1544864 12.773201309205938 103.63217482900977 0.14102325283478873
1652452778.5544748 12.187309138590436 103.64440748567054 0.14066710538509516
1652452778.954361 11.584641275539148 103.62892483615082 0.14590194146476218
1652452779.354351 10.961124591314231 103.61247020632828 0.13854445153962802
1652452779.7544217 10.415033362337873 103.60086001871674 0.14825779446937679
1652452780.1543994 9.811771025526738 103.5873458987266 0.15707272052405183
1652452780.5544043 9.197885452103037 103.57723068157662 0.1547468979966278
1652452780.9543843 8.640833631343945 103.58597955249917 0.15550733843288467
1652452781.3543868 8.072432981870847 103.61715759240386 0.15928312211589338
1652452781.75451 7.505752513352057 103.63722443181524 0.1634068417140841
1652452782.9544911 5.714953854018404 103.76911510822185 0.16357519574561394
1652452783.3544881 5.127584976516815 103.85146962828323 0.15625693655000666
1652452783.754409 4.544561451890964 103.94259748409641 0.1511573443701353
1652452784.1544166 3.94210904217217 104.03258671951471 0.14192657632899633
1652452784.9543653 2.749498554985337 104.17881269713895 0.13325640333543504
1652452785.3544407 2.1639410272698854 104.25344231244407 0.12928457841855037
1652452785.7556055 1.5567669933043717 104.33166440691005 0.11544473834736366
1652452786.9545403 -0.14177918863222772 104.54530181130619 0.12369627220515958
1652452787.3577206 -0.729938671686007 104.60468687942006 0.13357152131392747
1652452787.7551765 -1.329908770821561 104.65252974804646 0.14168284023317798
1652452788.1551297 -1.9784380452583932 104.65558936399313 0.13407573529065847
1652452788.5551064 -2.6030027001593297 104.63200243462538 0.12153059426571287
1652452788.9551392 -3.2163341669540984 104.58725156631607 0.10702363548631764
1652452789.7538476 -4.360719798414607 104.5840736367584 0.08661156563000626
1652452790.1550949 -4.917880944654584 104.59592381988625 0.09558404559736772
1652452790.9544969 -6.0979901893971515 104.62455039813545 0.10450857138050282
1652452791.3545146 -6.709980861079039 104.63976886652976 0.10461153448553062
1652452791.7545223 -7.336492906585526 104.66508871677516 0.088810136289749
1652452792.154648 -7.905959817002547 104.66522686637708 0.08468813023363374
1652452792.5546348 -8.512440714528012 104.67529062545673 0.07488007046835975
1652452792.9546895 -9.134443665079452 104.68127628460113 0.06022123104829276
1652452793.3546565 -9.729941352654542 104.6819838965834 0.04874058836556623
1652452793.754603 -10.320005778236016 104.6988054236422 0.03726678608581907
1652452794.154591 -10.883486915456025 104.70740968113728 0.038289690217027994
1652452794.5545974 -11.422928331757532 104.72312742529292 0.055586816441660816
1652452794.954607 -11.97559317805645 104.72794537336574 0.08078121832740999
1652452795.3546176 -12.563557667048485 104.7357234474253 0.10321366733964851
1652452795.7546368 -13.166599374778556 104.74497706126056 0.12021954870762751
1652452796.1546335 -13.78296265861659 104.76308127818838 0.12550870437665002
1652452796.5546734 -14.382322200498187 104.80061712048318 0.12369563214279589
1652452796.9546275 -14.969805399787433 104.83145306035871 0.12218596949124855
1652452798.5542915 -17.092269796046793 104.24686480031501 0.07216863184021284
1652452799.3543189 -17.949944613972107 103.43834645372644 0.021366712003101945
1652452799.7542825 -18.204731180113534 102.99256808117428 0.030889133905910193
1652452799.7542825 -18.204731180113534 102.99256808117428 0.030889133905910193
1652452800.1555133 -18.36644664438179 102.48006582283543 0.03351243600051393
1652452800.5542789 -18.488586055314073 101.85083818358628 0.010086807776717888
1652452801.3555233 -18.328717556746867 100.81765665901291 0.03982533800557189
1652452802.1556306 -17.73987562009657 99.72320860042257 0.0005968204870903937
1652452802.5544434 -17.32390614078961 99.32067889206549 0.00738558606551129
1652452803.354393 -16.198886386433003 98.67015405239911 -0.015925147338185952
1652452803.754389 -15.633371302972165 98.47574144615183 -0.0017572403151374927
1652452804.1556592 -15.059034333530576 98.31913342735109 0.008935149394581676
1652452804.5544872 -14.540258172383126 98.21767093936845 0.05617688192400129
1652452804.9544733 -13.937141204942755 98.09496651669426 0.0631826507604895
1652452805.7556067 -12.766870488615503 97.81204539264333 0.08785807299150471
1652452806.1544771 -12.174560248515078 97.64123203064293 0.08602197488013275
1652452806.5544894 -11.607318982063333 97.43852261796476 0.07655965974598018
1652452807.3544667 -10.627006083198467 96.93972964886828 0.021107139925074875
1652452808.1545212 -9.802119193767467 96.21787158711567 -0.0037327248711634675
1652452808.5545037 -9.436685523093239 95.79616617554497 -0.009373268035632099
1652452808.9548728 -9.061595083093486 95.36510475397807 -0.005382327970910261
1652452809.7561944 -8.408750388164101 94.4719256292326 0.033987757445705064
1652452810.1549437 -8.035838780198972 93.97737007320674 0.035930566064678954
1652452810.5548825 -7.676452104829487 93.48896364210503 0.028488232989832968
1652452810.954898 -7.3267280266504216 92.98351221205625 0.013549314711312876
1652452811.3549821 -6.987081660019527 92.48269609284793 0.002677538022107545
1652452811.7551155 -6.648933134401041 91.9843161202484 -0.01008110709774171
1652452812.1550896 -6.31614519022952 91.47559642676876 -0.02409224359496842
1652452812.5549705 -5.972134335033395 90.95541240066035 -0.04576753809260878
1652452813.355115 -5.3008684114798115 89.94489717691982 -0.08054662908178609
1652452814.1550941 -4.630372494926199 88.96941666353715 -0.11350484504594283
1652452814.555049 -4.3059798093527775 88.49503021188795 -0.11538051527484386
1652452814.9551005 -3.979794010348094 88.02064325600111 -0.11117474235695021
1652452815.3551455 -3.6541858807159784 87.52582864583127 -0.11768989250774176
1652452815.3551455 -3.6541858807159784 87.52582864583127 -0.11768989250774176
1652452815.7549884 -3.3321062254912803 87.02054822477947 -0.1276666598925024
1652452816.1548839 -3.0069308601040916 86.52355348906025 -0.13522295245788346
1652452816.5548542 -2.679651664901364 85.99657805529299 -0.15913185844513772
1652452816.9548614 -2.3498206561577675 85.49419077370861 -0.17403768431638186
1652452817.75491 -1.712111650841031 84.43051521199281 -0.23862643650637447
1652452818.5550125 -1.102342108024942 83.4132750352465 -0.2812381719867837
1652452818.9551125 -0.792337883352559 82.90075074437036 -0.297957467375202
1652452819.3551369 -0.47895922052084217 82.39008703185574 -0.3144243992486814
1652452820.5550063 0.4180873553238129 80.81687287411674 -0.3998466051965719
1652452820.9551585 0.6972572532973018 80.30606468110072 -0.4140886325132146
1652452821.3551676 0.9853604478067695 79.79697104947647 -0.42395775500917654
1652452821.7551727 1.3019859249381085 79.30136139865989 -0.4217176339699369
1652452822.1551669 1.6640886797005123 78.81418113792706 -0.42960367192208976
1652452822.5551798 2.010165365041246 78.33357144424465 -0.4428507979184189
1652452823.3563828 2.7040669112848974 77.4083566639673 -0.4383492088288482
1652452824.1551778 3.4144327730577047 76.45951179775905 -0.4396763734228163
1652452824.955357 4.093531187168985 75.54368010896016 -0.41942124727692076
1652452825.355359 4.444129992109076 75.07624428225975 -0.40790069305705756
1652452825.755352 4.796499988893274 74.63732098331732 -0.3889836481328165
1652452839.3556004 16.72833221385622 58.2924392931652 -0.062094121097032356
1652452840.1556058 17.347759342666166 57.385944545368716 0.0006125871500362035
1652452840.9556825 18.019211268814352 56.47357867413787 0.07723813716776197
1652452841.3556564 18.397479776735484 55.99655874461891 0.1009598462790819
1652452841.754375 18.719921739138208 55.61984726421592 0.1421689051294575
1652452842.9563892 19.92126272628776 53.973406090566314 0.1884514502176329
1652452842.9563892 19.92126272628776 53.973406090566314 0.1884514502176329
1652452843.3564787 20.04900640092277 53.676081767340435 0.19179762881536727
1652452843.7552426 20.19976264949476 53.236570324077356 0.19250164809490972
1652452844.1565182 20.289592671905865 52.79712952044801 0.1956925362751696
1652452844.9552271 20.412559857414116 51.696651058113865 0.19707303128222914
1652452845.355305 20.401295430942817 51.12852862133122 0.1934650330433229
1652452846.155104 20.244579099240248 49.99420182132446 0.19411986895685485
1652452846.5551634 20.108284850517038 49.43508684096271 0.19342170812927756
1652452846.956387 19.929196561354026 48.889387768600464 0.19152597193899235
1652452847.3552363 19.70519528261992 48.39456903055588 0.19016479696242283
1652452847.7552755 19.422722143382927 47.98363715982283 0.18903784836298637
1652452847.7552755 19.422722143382927 47.98363715982283 0.18903784836298637
1652452848.1563494 19.067045328005758 47.62213227228425 0.1813662839067791
1652452848.5562446 18.611377839657635 47.362679000604764 0.15140215950990085
1652452848.9550672 18.137724096999865 47.19057406631067 0.10124906281663533
1652452849.7551932 17.03257465562701 46.9540410106179 -0.02198792681094275
1652452850.155282 16.562738838228903 46.95492477946838 -0.019896431492915118
1652452850.9551744 15.512145047489218 47.16751924787404 -0.05567570827776577
1652452851.356379 14.940463861589908 47.307381578734955 -0.07248698133736317
1652452852.1563876 13.871574959456954 47.45008040767133 -0.09551044480803617
1652452852.5563655 13.318805388060488 47.48686828936871 -0.1043927413477016
1652452852.9552257 12.76664422604176 47.521539194667014 -0.10210185919594114
1652452853.356485 12.181950093878664 47.589948524474934 -0.11160599363259593
1652452856.5558712 7.6102659865808135 48.02493933506926 -0.08988828286195644
1652452856.955847 7.023210142595531 48.107185348739684 -0.0727675662208056
1652452857.3558795 6.422914608489538 48.20055149402549 -0.0665497780649982
1652452857.7558956 5.830850400350936 48.305595209912816 -0.06873422357827944
1652452858.5558546 4.678224902909413 48.51597870128441 -0.06563356386487484
1652452858.9558759 4.280365598779117 48.59501860671825 -0.06960189555857679
1652452859.3546386 3.944316856759105 48.66072653583841 -0.053830935792850115
1652452859.7558894 3.5816234214714378 48.72949704101339 -0.05001326388246935
1652452859.7558894 3.5816234214714378 48.72949704101339 -0.05001326388246935
1652452860.1557393 3.370094855064078 48.76800550940847 -0.052766402086066866
1652452860.5556257 3.397807307997372 48.76338399918417 -0.048781022562704085
1652452860.9556086 3.3842235162348615 48.76547880688048 -0.044106862674344466
1652452861.3556285 3.391631722173578 48.76654455658287 -0.043331736610988325
1652452861.7556036 3.397180521673679 48.76516540532979 -0.06823857321446117
1652452862.15561 3.397844950199609 48.764906222387516 -0.08271954117615726
1652452862.5568526 3.3955096241798017 48.764036811261434 -0.07222301441886511
1652452862.9555995 3.394526725427351 48.76508952483283 -0.04418721395503289
1652452863.356923 3.3925275890698963 48.76498207271641 -0.03673709021934357
1652452863.7556303 3.392055383465003 48.76544793793694 -0.037642280737205075
1652452864.1556225 3.3924650336501188 48.7654030053464 -0.04742729342460425
1652452864.5556219 3.3941585715787532 48.7646411124569 -0.055270733134310635
1652452864.955622 3.3949431736322957 48.76450647040751 -0.05898683830667251
1652452865.355743 3.39460276641303 48.76455830942554 -0.06027723830608708
1652452875.7554965 3.395636012375455 48.76483221796673 -0.061844559371482255
1652452876.1567805 3.3953198062252063 48.763998085120065 -0.061768445917665143
1652452876.1567805 3.3953198062252063 48.763998085120065 -0.061768445917665143
1652452876.555512 3.3954667748771428 48.76534200279798 -0.061451382998295084
1652452876.9554865 3.3955328713969486 48.76581817188963 -0.06127966708556193
1652452877.355629 3.3954570065763328 48.76493062407748 -0.06117197393123491
1652452877.7568846 3.3954820329899995 48.764999255903554 -0.06083753785522697
1652452878.1568499 3.395547589046455 48.76551498746734 -0.060874665453558074
1652452878.9567256 3.395544733899431 48.76547575941119 -0.06069733213687317
1652452879.357989 3.3955053370389514 48.76555143819299 -0.060804947019172606
1652452879.7568321 3.3954241729346606 48.764774558275874 -0.06095921096936846
1652452880.1567423 3.3955440051805468 48.76565654092754 -0.060941695014402525
1652452880.9567437 3.3959216563132273 48.765854962754865 -0.061305620616321804
1652452880.9567437 3.3959216563132273 48.765854962754865 -0.061305620616321804
1652452881.3567562 3.3953221322331117 48.765756390244114 -0.061318455489780155
1652452881.7554646 3.39524634953386 48.76562564406018 -0.06129997078173835
1652452882.1566012 3.395264343611313 48.76548250778612 -0.06113584179682585
1652452882.9566162 3.395411108735786 48.76521974148914 -0.061157828093525046
1652452884.1563277 3.3957782112656716 48.7657823090779 -0.06170129720742687
1652452884.9561086 3.3968096695978893 48.76422098914074 -0.06279412895963624
1652452885.3561025 3.39617934993451 48.76367699266389 -0.061737826810012164
1652452885.7561 3.395600527493812 48.76543768458798 -0.060707428828517984
1652452886.156087 3.395542897778718 48.7652641745092 -0.060656411019409495
1652452886.5559592 3.395474322945322 48.764677192132254 -0.06085236496319141
1652452886.9558449 3.3955986740188635 48.76551740896019 -0.06101099020802764
1652452886.9558449 3.3955986740188635 48.76551740896019 -0.06101099020802764
1652452887.3559456 3.3955837591925864 48.76555879168178 -0.06126072180172476
1652452888.1563003 3.395497044890778 48.76518806839802 -0.061053834661975726
1652452888.9562619 3.3955693467164174 48.76568410645018 -0.060756141462421226
1652452889.3562884 3.395463800293488 48.76534514099719 -0.060815980036088624
1652452889.7562919 3.3957521089142837 48.76626340247874 -0.06101166410295922
1652452890.5575945 3.3955596768991505 48.76519928580686 -0.061119506822374464
1652452891.3563263 3.3954530164780756 48.766011369797404 -0.06118928915429217
1652452891.7561634 3.395472582443265 48.76559451233574 -0.061237804010342956
1652452892.1561704 3.395473441628667 48.76575568039496 -0.06129555041687221
1652452892.5561547 3.3954442382737753 48.76525402366529 -0.061508066563683544
1652452892.956155 3.395606207202171 48.766241259259104 -0.0614799558254385
1652452893.3561459 3.395486959221106 48.76545024381887 -0.061454406420415664
1652452894.9575913 3.3952851326988096 48.76425641197771 -0.061508878427255664
1652452895.3575842 3.395344634542056 48.76515623795555 -0.06163705937928543
1652452895.7576077 3.395347187861802 48.765236620384975 -0.06164421351358376
1652452895.7576077 3.395347187861802 48.765236620384975 -0.06164421351358376
1652452896.1565301 3.395419620080947 48.76517588363181 -0.06169170214300995
1652452896.5571623 3.3954067534453536 48.76515755111596 -0.06167458161595896
1652452896.9558892 3.3966090369749615 48.7672793083957 -0.05767573435415657
1652452897.3571455 2.749501927950348 48.89781016718977 -0.04306683767932465
1652452898.1571004 1.5849862271218633 49.13986457343793 -0.05639499291074404
1652452898.555841 0.9597270108779128 49.27813923284231 -0.08201862069189211
1652452898.9568477 0.332131805791704 49.42240291899897 -0.1224791820166323
1652452899.3556283 -0.24290145982401867 49.58217856228793 -0.15291164520590253
1652452900.1568308 -1.1963129360715818 49.81686908731311 -0.06193327045784652
1652452900.5568602 -1.7884357198912575 49.9435372654156 -0.037742976773939785
1652452900.9569228 -2.414828037929432 50.054399273698394 -0.031294278015310484
1652452900.9569228 -2.414828037929432 50.054399273698394 -0.031294278015310484
1652452901.356901 -3.0084899701730414 50.1052666850746 -0.03308557160103842
1652452901.75688 -3.5504069220504384 50.10233865274067 -0.015015873920836503
1652452902.156884 -4.106374823041271 50.06285782855788 0.00452511712318826
1652452902.5569675 -4.705070318614425 50.012038363639476 0.016590152701260324
1652452902.9568856 -5.314222340968772 49.92397536005565 0.023781372260967576
1652452903.7568429 -6.558215105632488 49.70115075619367 0.008917262206845938
1652452904.1567175 -7.15333613769322 49.58289525870085 0.005218973316521186
1652452904.5565894 -7.698792611243469 49.49314603164639 0.010612749730470217
1652452904.956588 -8.241492528111301 49.4244388548512 0.014566624240038323
1652452905.3566668 -8.803459630236226 49.35245814063663 0.019750498050532084
1652452905.7566102 -9.37560779210856 49.27392970310312 0.03793196182174516
1652452906.1566186 -9.958023475148881 49.198189433583195 0.05066957380790896
1652452906.5566165 -10.5609890686667 49.092627657058735 0.0637066730997216
1652452906.9565978 -11.13901714305419 48.912971197821506 0.06660643691565472
1652452907.3566089 -11.669923893492253 48.68434830103038 0.07272351034151633
1652452907.7566214 -12.159050274244589 48.39043489632863 0.08019098506233822
1652452908.556623 -12.928584839870712 47.66309500218918 0.0901605223111154
1652452908.9566176 -13.309909684829076 47.219893759530194 0.08846760170374432
1652452909.3566287 -13.723506500073697 46.79599046607218 0.08884047004288163
1652452909.75663 -14.173444732009887 46.36354428879652 0.07396618659949215
1652452910.156668 -14.590068165122972 46.024124384306546 0.07225288384296093
1652452910.5566096 -14.960686252404933 45.807009602669694 0.06590484522173012
1652452910.9566176 -15.32109287347857 45.65336685041636 0.05066523506309606
1652452910.9566176 -15.32109287347857 45.65336685041636 0.05066523506309606
1652452911.7566218 -16.349487343430532 45.201032869557295 0.008617134984128222
1652452912.1566067 -16.92869613196021 44.919752946459894 -0.018423062123206713
1652452912.5566056 -17.419432991853185 44.63856317055591 -0.009656854806802034
1652452912.9566002 -17.86101363092901 44.34351882377411 0.0075219142024989805
1652452913.3565948 -18.273637193254622 43.97107467620691 0.016624516430188058
1652452913.7565024 -18.638495053352067 43.56572728640017 0.023671181768969762
1652452914.1565187 -18.90776859372754 43.13792886089847 0.03650218777050385
1652452914.556509 -19.138582602756948 42.63472082842646 0.04498134978754456
1652452915.3577929 -19.53017624599085 41.480297047881876 0.05712951220655252
1652452915.7577431 -19.631282243941207 40.856892936348714 0.052836010151573576
1652452915.7577431 -19.631282243941207 40.856892936348714 0.052836010151573576
1652452916.157776 -19.681136137890384 40.24242363186308 0.05075665371915428
1652452917.754784 -19.497606393565768 37.80830349827421 0.0650902988054607
1652452918.154748 -19.406341125082907 37.19985864177426 0.054850265614645136
1652452918.5548487 -19.354991498907253 36.61638137469575 0.051181540370717774
1652452918.9548538 -19.365697419273364 36.15462596444061 0.0547574036015379
1652452919.3548324 -19.407760241383464 35.72376036868465 0.06284811000250304
1652452919.7559564 -19.47612393000285 35.1488211257235 0.04533276028235059
1652452920.555718 -19.626996692833927 33.978581672459896 0.05543968825056908
1652452920.555718 -19.626996692833927 33.978581672459896 0.05543968825056908
1652452920.9556415 -19.63272200135268 33.383652020554436 0.05363161434142176
1652452921.3556654 -19.57605038332605 32.925617551779155 0.08218213389276001
1652452921.7544188 -19.42748227213655 32.522793585441995 0.09367192005442496
1652452922.154497 -19.239869972769363 32.200668850945064 0.09983651613878211
1652452922.5557616 -18.939690594497293 31.950763530325133 0.09851198844495436
1652452922.9545069 -18.588607984255304 31.671547945051216 0.10553171856811674
1652452923.3544848 -18.1139645950694 31.364550482524088 0.0953497851238259
1652452923.754463 -17.585046832012132 31.137334209161242 0.09244125119218007
1652452924.1555772 -17.040704003676503 30.99806042545156 0.09952703574097918
1652452924.5556412 -16.509159188504675 30.95183470759644 0.10954319135652266
1652452924.954375 -16.008322395942045 30.99972060365572 0.13555116775612963
1652452925.3587632 -15.404963466100941 31.117221785218323 0.14384464463321706
1652452925.3587632 -15.404963466100941 31.117221785218323 0.14384464463321706
1652452925.7577806 -14.756828481582067 31.26884182961953 0.13318354023526055
1652452926.1579332 -14.173673553124186 31.44516414796995 0.1422036692944309
1652452926.5578387 -13.595266331349716 31.65650169071255 0.15149335689652949
1652452926.9552264 -12.997595438800113 31.896093358720684 0.14512898049206202
1652452927.3539853 -12.390603876465766 32.1657075198712 0.1194621890528367
1652452927.7539697 -11.80009465496448 32.4125813696419 0.08459749738376761
1652452928.154242 -11.28035602743352 32.620716461692254 0.06691144174041412
1652452928.5544 -10.8520372431463 32.74979758927941 0.08553904721513825
1652452928.9544146 -10.440437149726813 32.84213644435275 0.10256706274668664
1652452929.7543883 -9.595263228277458 32.89890478734769 0.10132415961681608
1652452930.154379 -9.078751277831772 32.89676284718739 0.09505019929480986
1652452930.555608 -8.506800195075138 32.8809727460071 0.09304113689211017
1652452930.555608 -8.506800195075138 32.8809727460071 0.09304113689211017
1652452930.9554796 -7.9136392820670505 32.84517398702032 0.078750346772071
1652452931.3541605 -7.350690582454098 32.80717000224051 0.09225149554520053
1652452931.75419 -6.763367777849114 32.75479416357931 0.09430046076271201
1652452932.1553962 -6.1498236806403295 32.69062213317303 0.08694996929213833
1652452932.5542042 -5.552379186920474 32.62147697612384 0.0803522878300657
1652452932.9553545 -4.958877671111418 32.54523282495843 0.0757536781176355
1652452933.354189 -4.385900503605592 32.47194224237681 0.08354098726667716
1652452933.7553446 -3.7938434444782363 32.3825393782585 0.08236201042362205
1652452934.1541624 -3.187932450937746 32.29252548963103 0.07548872507916354
1652452934.555338 -2.5597721242193625 32.18401355533372 0.04967970505541065
1652452934.9552395 -1.9350599141130527 32.06248616470502 0.011600852993557259
1652452935.3553007 -1.3680698311369834 31.943437151370347 -0.0006638574788454255
1652452935.7541502 -0.8264305732082349 31.816224099774956 0.006191441983661339
1652452935.7541502 -0.8264305732082349 31.816224099774956 0.006191441983661339
1652452936.154173 -0.24941396861395582 31.67932081982757 0.0014761215160384311
1652452936.5542133 0.34693093425272004 31.52545083392928 -0.01650074962416545
1652452936.954184 0.9066649135831817 31.384386916338457 -0.013920022759785433
1652452937.354208 1.486918553686495 31.224457676102055 -0.027745908754946563
1652452937.755365 2.0264342918772886 31.08296844877844 -0.014233135887523257
1652452938.1542046 2.5803013513749633 30.931202615401894 -0.0009530897653978465
1652452938.5541537 3.146537451865532 30.77112260478597 0.007076098092908739
1652452938.9541464 3.6882287972034806 30.613780877006967 0.02649186016926497
1652452939.3541315 4.22013116077693 30.442715644482426 0.030475620561967898
1652452939.755335 4.759200830692029 30.258793661219535 0.033455217996881614
1652452940.155214 5.300657329783782 30.06970410339163 0.04653707711410471
1652452940.5551128 5.859386303414288 29.861720750334158 0.049632027444813584
1652452940.5551128 5.859386303414288 29.861720750334158 0.049632027444813584
1652452940.9552867 6.4046027452211085 29.66621238169096 0.06325903939427975
1652452941.355906 6.9672109931276225 29.45621584809116 0.06828508934255083
1652452942.554436 8.633995103570635 28.78355410380835 0.03712665964225892
1652452942.95439 8.991776087341158 28.636696875239398 0.029976078919110305
1652452943.354375 9.16335171361791 28.57034898264527 0.041848295326719936
1652452943.7542903 9.345649575493532 28.49542847288003 0.04492210781031873
1652452944.1543877 9.584608009833556 28.3867159279289 0.04515356101795227
1652452944.9544396 10.308992360863243 28.062945435573134 0.024212428144554127
1652452945.3544142 10.69049566527004 27.893257439076578 0.020150228504876216
1652452945.7544057 11.076671625161923 27.706019783818398 0.02326730784564926
1652452946.1545331 11.504501329075039 27.441350429336637 0.010229522290824383
1652452946.5546308 11.896281882955877 27.13393547382674 0.0033191333698419367
1652452946.9558978 12.192935399937838 26.823511395312995 0.005160502992875321
1652452947.3546648 12.374983490012788 26.510687476871894 -0.004368516486978891
1652452947.754651 12.437184161679106 26.322435569355076 -0.004361242123844561
1652452948.1545987 12.400608781144422 26.2403430782353 -0.007125888757462673
1652452948.5546007 12.344874684863086 26.276607704033687 -0.008804080196010533
1652452948.9558575 12.302843328342387 26.36404178929125 -0.004334143492473963
1652452949.3545895 12.202015795601232 26.323193786415352 0.004706008554707597
1652452949.7546268 11.991733546613752 26.13467005079836 0.001448199246104842
1652452950.1546082 11.880190150012552 26.08834549047669 0.00792060036276579
1652452950.5546207 11.562406758370864 26.087152250461365 0.010628213603590508
1652452951.3546236 10.83403952114972 26.14109443863789 0.018631030256119036
1652452951.7545936 10.485640344868647 26.14804593118542 0.012415238985096888
1652452952.1546278 10.10562619842047 26.152012155134262 0.018790634673462037
1652452952.5546227 9.593137775119715 26.153709915798927 0.03308612336404207
1652452952.9546196 9.055427665732303 26.1321658101511 0.03803965040823895
1652452953.355875 8.519846105028154 26.08256878835894 0.03966311067410949
1652452953.7546396 8.014818654231188 26.01831002171404 0.052522044466235665
1652452954.154625 7.503932591470757 25.925292642297755 0.05376570713909573
1652452954.554612 7.159157710825694 25.85221324014359 0.03709619830333552
1652452954.9546251 7.188724366876218 25.86017760258681 0.04449528538866586
1652452955.354608 7.177971373893764 25.85925995038766 0.04260427710761622
1652452955.354608 7.177971373893764 25.85925995038766 0.04260427710761622
1652452955.754593 7.184255472908253 25.86025933760334 0.04315765581608777
1652452956.554623 7.181281551214334 25.86140779134412 0.04310245419115258
1652452956.954655 7.181044970120632 25.860844865544813 0.04312643457726864
1652452957.3546195 7.181375050629824 25.861394887934658 0.04308022456111055
1652452957.7546418 7.181174820158146 25.860487912642 0.042905544127725265
1652452958.154622 7.181144136734837 25.860318049373955 0.04288147448097729
1652452958.5546207 7.181107180239011 25.860140007194303 0.04290070907333912
1652452958.9546385 7.181111213520795 25.860447387445966 0.04294028684405213
1652452959.3546464 7.181151547280433 25.860485775611235 0.04291021921199076
1652452959.7546043 7.181221652614293 25.860438822580647 0.042887114504842755
1652452960.1546333 7.1813691941070035 25.860545486801854 0.04308483422264325
1652452960.554619 7.1814878803636235 25.86074753149115 0.04320962573714396
1652452960.554619 7.1814878803636235 25.86074753149115 0.04320962573714396
1652452960.954671 7.18142990229576 25.860693874899695 0.043138301179422245
1652452961.3546166 7.181199407769124 25.860341693544505 0.04318057214024165
1652452961.7546732 7.181384741040185 25.860913001466216 0.043238530838811254
1652452962.1546373 7.181277834039772 25.860610878664186 0.04311820329906746
1652452962.5546033 7.181548954929969 25.861193272201767 0.043126556412935696
1652452963.3545947 7.181191525295011 25.860556279161795 0.042892913159215174
1652452963.7545977 7.181485649662156 25.861332613145926 0.04292216544408853
1652452964.1545873 7.18142771019942 25.861396383579052 0.04293695222911667
1652452964.5545816 7.181488838857673 25.861714422388918 0.04286670038403839
1652452965.354673 7.181396047018069 25.861587891162717 0.04269421136388782
1652452965.354673 7.181396047018069 25.861587891162717 0.04269421136388782
1652452966.1546674 7.1815128447350105 25.861566654868597 0.04271215697759162
1652452966.555895 7.176654340655005 25.852171744983583 0.04511157955871162
1652452966.9558957 6.70256498142915 25.78893953855635 0.04904224541191993
1652452967.3558736 6.195144137219733 25.658529022491944 0.046938256323729236
1652452967.7546222 5.753789769173801 25.494558153652427 0.05419283395406313
1652452968.1549368 5.286919065862687 25.26515219222793 0.05617188354673819
1652452968.556108 4.757326060132453 24.95851284775948 0.05663544471026598
1652452968.9548793 4.249806895533583 24.59038011671226 0.05606815460307367
1652452969.3561504 3.7952888565858274 24.171146539580686 0.06383720471626303
1652452969.7548532 3.397675458909786 23.707472631978884 0.06827535129125713
1652452970.1573842 3.0803645271129447 23.229327017712613 0.06772711506340268
1652452970.5561469 2.8186202065443826 22.72706887337288 0.08207284830600031
1652452970.9561417 2.5722515192326085 22.14995347958768 0.08164637105157303
1652452971.7592251 2.250418800548049 20.966115819796286 0.08451275763980018
1652452972.159144 2.1387625976634173 20.34303361366581 0.07297571447178018
1652452972.159144 2.1387625976634173 20.34303361366581 0.07297571447178018
1652452972.5592816 2.066176154667204 19.752797194799797 0.08012519626308273
1652452972.957255 2.013611286767632 19.159795082693584 0.09750462594943136
1652452973.3559802 1.9904801198674535 18.524738170181397 0.0901765566036383
1652452973.7573938 1.9830830470818324 17.934765724436826 0.10252604107338467
1652452974.1561098 1.9959324670736516 17.332369111098814 0.11987041836893594
1652452974.5548475 2.023028530938693 16.702972575933025 0.11016266097944456
1652452974.955998 2.0365537304155588 16.191506985082388 0.11025039894119082
1652452975.356173 2.0271878006573187 15.855303187424001 0.10642615138857262
1652452975.7561517 1.9863494860522053 15.542744730691382 0.1066383486204238
1652452976.1561775 1.9202377943157787 15.195830226478721 0.1044527806650811
1652452976.5549178 1.8375421184027338 14.881392679928483 0.11224597048611216
1652452976.9561453 1.6990796867171918 14.55817947267743 0.11030154278758594
1652452978.1548514 0.9425507240355229 13.046246100870523 0.09392349212926693
1652452978.5560102 0.6735647292660047 12.534175465373298 0.10332145296735995
1652452978.9548564 0.4078931527895566 12.011283689703884 0.1180702142085393
1652452979.3561125 0.11649084182233871 11.491403697273672 0.12488513847014193
1652452979.3561125 0.11649084182233871 11.491403697273672 0.12488513847014193
1652452979.7562928 -0.1928920786818864 10.977597828670733 0.12404339869071249
1652452980.155026 -0.5155309080139467 10.480313509292834 0.12449737217405485
1652452980.5563633 -0.8441442538013852 9.984703121335293 0.12709940240994574
1652452980.9563847 -1.1748620535262404 9.470439402020848 0.12565448814253552
1652452981.356383 -1.505649534142508 8.929579573299577 0.11472482996237787
1652452981.7551441 -1.8233630848081415 8.391254973090904 0.09910041148654014
1652452982.1551409 -2.115834788424044 7.866991389787923 0.08586278808490456
1652452982.5563731 -2.4020345976553754 7.352831340642748 0.07699521690933732
1652452982.9551768 -2.717254291624247 6.85732503535238 0.06494793261017581
1652452984.1550133 -3.8040181467919476 5.5791355202496575 0.08050909284978858
1652452984.1550133 -3.8040181467919476 5.5791355202496575 0.08050909284978858
1652452984.5548663 -4.229875565245653 5.1682447894057955 0.0844459643726336
1652452984.954757 -4.662111103119583 4.764910667717869 0.08703533406720054
1652452985.3547184 -5.102161650889434 4.366659952976678 0.08691952811060705
1652452985.7547364 -5.559982925289791 3.939945431223206 0.07521469371769685
1652452986.1547287 -5.986029066871421 3.5166505693663765 0.0689975660136087
1652452986.5547237 -6.386840810430403 3.1006084583652673 0.07947816798324163
1652452986.9547415 -6.795361536137678 2.6662608446239493 0.0825122930395668
1652452987.3546228 -7.187607370250008 2.2370960896862817 0.08800942265618562
1652452987.754603 -7.554794845243695 1.8204835971297637 0.09049355946261634
1652452988.1546073 -7.9065805773105025 1.4162403672486072 0.08960425011163252
1652452988.5545886 -8.179229943665526 1.0639642164601133 0.08533780243741551
1652452989.7548602 -8.960334715331214 -0.07610116052152005 0.08974918957250627
1652452989.7548602 -8.960334715331214 -0.07610116052152005 0.08974918957250627
1652452990.154871 -9.224859268829512 -0.4998267151849136 0.08024305099339445
1652452990.5549662 -9.459756961531754 -0.921612084104968 0.08226812965856914
1652452990.9561455 -9.676125455761323 -1.3254145527819379 0.0875262006265598
1652452991.3561246 -9.869161344716684 -1.6977746283527653 0.084283374942779
1652452991.7548497 -10.02374928918517 -2.031109525724358 0.08322143135461933
1652452992.1548567 -10.15748417892685 -2.33704636025025 0.07966014813750821
1652452992.5548635 -10.212316239487883 -2.4536739802951306 0.07812123438237532
1652452992.95484 -10.215301536683643 -2.4582345850295635 0.07895885292299969
1652452993.3548539 -10.21468349769339 -2.4560225680014423 0.07989385866742656
1652452993.754845 -10.21422487213254 -2.455005278251642 0.07986555677786947
1652452994.1560984 -10.21514208273738 -2.4563458723455054 0.07934131538135432
1652452994.1560984 -10.21514208273738 -2.4563458723455054 0.07934131538135432
1652452994.555997 -10.21551661745807 -2.456851492961451 0.07904046398200215
1652452994.9559696 -10.215116235984674 -2.457329983681084 0.07894288811711095
1652452995.3558755 -10.215271643399646 -2.4574733571959313 0.07892730943925037
1652452995.755868 -10.214948948049717 -2.457635989878191 0.07891432515337199
1652452996.1558537 -10.215538584748668 -2.457393868359196 0.07872041602324867
1652452996.5558891 -10.215065636658965 -2.457581557407359 0.07881112580582729
1652452996.9559848 -10.215313092466001 -2.457465590844728 0.07902340978352326
1652452997.355979 -10.215744468857363 -2.4572792872198037 0.07900462884431966
1652452997.7559845 -10.216127057351727 -2.4571130976455895 0.07878322202322544
1652452998.1559885 -10.215228753529168 -2.4574271592386605 0.0787605074475525
1652452998.9559827 -10.215145520775511 -2.4574614224622873 0.07876048823277708
1652452998.9559827 -10.215145520775511 -2.4574614224622873 0.07876048823277708
1652452999.3565187 -10.215144625201178 -2.457459195086734 0.07876132041341673
1652453000.1565313 -10.215186478932864 -2.4573518533510588 0.07870769056946032
1652453000.5552719 -10.21533312205472 -2.4572875716790348 0.0787109137956648
1652453000.9565132 -10.215100028586445 -2.4573775101425253 0.07872733337251268
1652453001.3552747 -10.21491343943155 -2.4574493952437804 0.07873453884489766
1652453001.7553945 -10.214783532008077 -2.457501557845294 0.0787364514433851
1652453002.1554132 -10.214885663712717 -2.45745936348893 0.07877250186889567
1652453002.556612 -10.214970221620188 -2.457425232856953 0.07885865546777351
1652453002.9553409 -10.214527887785948 -2.4576124079691817 0.07884263188271719
1652453003.355224 -10.214566834909096 -2.4576016041498856 0.07885290422670528
1652453003.7554288 -10.214720210504773 -2.4575540769009714 0.07884957717714948
1652453004.1553557 -10.214671087546007 -2.4575659849337126 0.07885109141445924
1652453004.1553557 -10.214671087546007 -2.4575659849337126 0.07885109141445924
1652453004.5553699 -10.214507322691691 -2.4576409638101295 0.07885583600938516
1652453004.9553978 -10.215057527404088 -2.4574278557167113 0.07884768216499508
1652453005.3554127 -10.215862352656947 -2.457124154706487 0.07883626081321232
1652453005.755362 -10.21544513028493 -2.4572926364356396 0.07884271273642503
1652453006.1565926 -10.215345876667225 -2.457340644313192 0.07884109275280365
1652453006.5564792 -10.215393865179326 -2.4573262694784748 0.07883083953365727
1652453006.9564743 -10.215735686877451 -2.457185140312376 0.0788141380585263
1652453007.3565454 -10.214500295216162 -2.4576780903912723 0.07881783075265049
1652453008.1552565 -10.219865905794524 -2.455174859442458 0.07977621714390117
1652453008.5566347 -10.417182770955478 -2.8444606572539524 0.09230436624237455
1652453008.956612 -10.54000715717688 -3.098577257465337 0.09069620018327015
1652453008.956612 -10.54000715717688 -3.098577257465337 0.09069620018327015
1652453009.3566267 -10.730268213422821 -3.4816618310109266 0.09280461727851538
1652453009.756628 -10.931538745860394 -3.892838183599427 0.08662332831077946
1652453010.1565871 -11.15329652570085 -4.27104940615294 0.07984841881990319
1652453010.5564868 -11.316939955053165 -4.554269911807161 0.07956100427220036
1652453010.9565697 -11.409844090210328 -4.706215010533111 0.08170882751684556
1652453033.756497 -12.106759038856717 -5.302878833342582 0.06644161587311152
1652453034.156539 -12.50649497664086 -5.534975401570435 0.07618053962615749
1652453034.156539 -12.50649497664086 -5.534975401570435 0.07618053962615749
1652453034.9577327 -13.3597510184858 -5.887001836671571 0.0869420619306772
1652453035.3553977 -14.048514885331043 -6.038552993622534 0.07987365691892011
1652453035.756634 -14.523286225543554 -6.036303899824355 0.07520491552099962
1652453036.1566207 -14.828071003500417 -5.9627747257688215 0.07914068806791283
1652453036.5578756 -15.266439245012371 -5.8340092136005754 0.08476074145548015
1652453036.9567223 -15.73828906368203 -5.653125415274413 0.0702811687961716
1652453037.358039 -16.14630686122016 -5.457165751595399 0.06689086629719981
1652453037.7567065 -16.588658686309195 -5.223248402491712 0.0718902416723204
1652453038.557762 -17.30216921668698 -4.731141271469049 0.06304160823082977
1652453038.9564965 -17.6018891853087 -4.5333595415227474 0.05933955946406909
1652453038.9564965 -17.6018891853087 -4.5333595415227474 0.05933955946406909
1652453039.3566172 -17.637064927097 -4.506425167168296 0.05937786977377911
1652453039.7566612 -17.631568980904866 -4.516095363892292 0.061102974694520085
1652453040.156637 -17.63271618389713 -4.515765650967184 0.06078431791057337
1652453040.5566542 -17.63122455127658 -4.516082661057521 0.060626621772067
1652453040.9566183 -17.632103325473146 -4.515762275010275 0.06048598235029003
1652453041.3566358 -17.63152293560441 -4.515757183194465 0.060500428694120076
1652453041.7566218 -17.632161554811276 -4.5156988872385435 0.060522763930389675
1652453042.1577659 -17.63194235575218 -4.515700817103269 0.06063056649928167
1652453042.557755 -17.631682210051228 -4.515695996092232 0.060651173544169976
1652453042.9565163 -17.632481110605084 -4.5156498829154454 0.06064668279645108
1652453043.357755 -17.632761228139575 -4.515649987574353 0.060640607459678475
1652453043.7578855 -17.632641427926558 -4.515652891427546 0.060662223710294075
1652453044.1578732 -17.632459646718843 -4.515628187902574 0.06055527986839282
1652453044.5580204 -17.63264954846782 -4.515623600092401 0.06054822049818853
