1652456084.4836411 -11.056892073269575 23.539034236147394 0.1639568975337571
1652456084.8836625 -11.407307548411865 24.001438324006457 0.1622443252207549
1652456085.683956 -12.087836113147555 24.960021001245984 0.15993360165888784
1652456086.082676 -12.370324263604013 25.459156607268223 0.16588060782559416
1652456086.8845537 -12.879959070003206 26.496314526872425 0.1584632641990629
1652456087.2845879 -13.108338888326257 27.025746636183996 0.16324863400353112
1652456087.6845326 -13.315169652264641 27.565076974470635 0.16582471227688145
1652456088.0845222 -13.520353928217261 28.110902052972794 0.17212125504772086
1652456088.4845302 -13.696075532836186 28.68852845381877 0.16460031763596933
1652456088.4845302 -13.696075532836186 28.68852845381877 0.16460031763596933
1652456088.8845859 -13.863902901785842 29.2744512412507 0.1491284897171396
1652456089.2847557 -14.009707810532394 29.816165662419948 0.15710923582839664
1652456089.684926 -14.149031486326145 30.39611139753485 0.15388645363142486
1652456090.0850487 -14.29095443453289 30.993486979265537 0.14006998911127716
1652456090.4851387 -14.403809752311844 31.544920708552596 0.14459902681658696
1652456091.2845259 -14.462294073654936 32.63291381167606 0.13924448312814514
1652456091.6845186 -14.437086551584319 33.19261060011348 0.13787519857973848
1652456092.0845094 -14.384201669779733 33.76894787186469 0.1383361576814137
1652456092.4859672 -14.297663119085673 34.34731559826841 0.13276208776325274
1652456092.8851736 -14.174359228558203 34.915316372912564 0.12565768171487757
1652456093.2839518 -14.003659678716941 35.449718974460986 0.12669494481022814
1652456093.2839518 -14.003659678716941 35.449718974460986 0.12669494481022814
1652456093.6871264 -13.792295293414666 35.97653521775307 0.1261453860129072
1652456094.087058 -13.555167198633727 36.509575857768596 0.12462432891174703
1652456094.4857812 -13.327398945521315 37.040714760395424 0.1219366418177931
1652456094.8858175 -13.186696759775637 37.472207997712786 0.12075933230645583
1652456095.2846496 -13.104838104781075 37.83336163466855 0.12456630584480113
1652456095.6846611 -12.980328771163661 38.3515280873703 0.12134675535398612
1652456096.084762 -12.809839463293306 38.94490341567481 0.11422952814436878
1652456096.4835331 -12.665466774284889 39.529944345258365 0.12274375945647327
1652456096.8835142 -12.53893013065788 40.129440820392084 0.12233882686616901
1652456097.2835238 -12.432697137416534 40.74320585360687 0.11656421011577901
1652456097.683518 -12.341555759936428 41.34008536909266 0.1167786252249628
1652456098.0835319 -12.268723945869352 41.94580287326453 0.11241755983975911
1652456098.0835319 -12.268723945869352 41.94580287326453 0.11241755983975911
1652456098.4835875 -12.224104346064612 42.53421499531318 0.12071145982485038
1652456098.883576 -12.181385726496188 43.13747000883953 0.1202039708566652
1652456099.2849002 -12.131332774221885 43.79295770562783 0.0880456242725067
1652456100.0836785 -12.052424788302694 44.88481237288554 0.1258078591275874
1652456100.4836838 -12.00526784403683 45.53046291138658 0.11104039811210552
1652456100.8837006 -11.957412130127004 46.13932171394211 0.10291144013932575
1652456101.2836986 -11.918496230461379 46.7350429830194 0.09846238740664409
1652456101.6836586 -11.88066815739747 47.33996658447593 0.09091372119016457
1652456102.0836422 -11.852637358655002 47.944002561062206 0.0854282430379521
1652456102.483646 -11.824673458400394 48.54893746554195 0.07997626816989628
1652456102.8837466 -11.796567950743523 49.14754419851357 0.07359608005655613
1652456103.283766 -11.77451808425391 49.757037416334484 0.06563389977023398
1652456103.283766 -11.77451808425391 49.757037416334484 0.06563389977023398
1652456103.6838105 -11.754017790836247 50.36152423508696 0.05882099404056647
1652456104.0851564 -11.728894225780738 50.96262170823704 0.050352007813206076
1652456104.4852107 -11.697737574477117 51.560612967138425 0.04002370914013886
1652456104.8839278 -11.651722013683958 52.13943309824135 0.040091140911456935
1652456105.2839067 -11.60023784818629 52.73510198405917 0.033870758735716516
1652456105.6851537 -11.540707156522068 53.32305233665138 0.028795397178276477
1652456106.0839028 -11.49787170040991 53.899414123288096 0.03111504762263706
1652456106.4839046 -11.450268734701211 54.50438753733714 0.027822367234056317
1652456107.2839057 -11.372816169916824 55.68844648919294 0.023417235175495987
1652456107.683949 -11.335012032593411 56.29445828415827 0.019009230299876556
1652456108.0839515 -11.294761533004547 56.90467203327243 0.011453142025016294
1652456108.0839515 -11.294761533004547 56.90467203327243 0.011453142025016294
1652456108.4840012 -11.250962652256476 57.49548308947615 0.006458836421538744
1652456109.2853339 -11.151728126042592 58.69979108198051 -0.006894922882008492
1652456109.6854436 -11.103804228348594 59.29852867971112 -0.016445045504716815
1652456110.0841784 -11.053341039944769 59.880574975596886 -0.022378313163008257
1652456110.4841516 -11.00783465687315 60.45819909144653 -0.021464013426756717
1652456110.8842661 -10.962749746366583 61.030575728502775 -0.014701218342957234
1652456111.284445 -10.903825291925095 61.626937997552105 -0.012151204974388069
1652456111.684442 -10.846771585898239 62.209543337051784 -0.007892584412936193
1652456112.4846358 -10.714809292883992 63.40211194924139 -0.005659573633442938
1652456112.8846521 -10.652301997837284 63.991584786347055 -0.006311195509762474
1652456113.2847564 -10.582522790026168 64.56853216778674 -0.002077876904209408
1652456113.6848285 -10.487136592810415 65.14915709911257 0.0017143876233463584
1652456114.0849855 -10.36584253005568 65.7414526552278 -0.0029092061638522626
1652456114.4850693 -10.235177789390683 66.30907962682349 -0.004122542817061148
1652456114.8837855 -10.101641963913565 66.89525629055288 -0.008385802597362269
1652456115.283911 -9.9616555993628 67.47432101378647 -0.01345650016535993
1652456115.683908 -9.817339715223376 68.05919215833565 -0.01967295819758283
1652456116.0838976 -9.661207715289734 68.63273691945659 -0.02537363376245308
1652456116.48394 -9.508191982843236 69.22089035949585 -0.032784961124525974
1652456116.8839645 -9.365467790745157 69.83294803458351 -0.04484935803089085
1652456117.283963 -9.276033005935751 70.4314065458609 -0.05302757484510126
1652456117.6839514 -9.191337903303094 71.00453278947558 -0.05776204705764357
1652456117.6839514 -9.191337903303094 71.00453278947558 -0.05776204705764357
1652456118.083993 -9.097338323094462 71.5948313713888 -0.06477756058246018
1652456118.4840677 -9.002147390168737 72.18051076481599 -0.07068299062006014
1652456118.8853774 -8.908658628032711 72.80496288194644 -0.0857943498512729
1652456119.2841916 -8.820655927067413 73.3934528113129 -0.09719938559129784
1652456119.684305 -8.727478178852124 73.99478534688141 -0.11138751434676955
1652456120.084425 -8.63068786111441 74.59631689452462 -0.12771433635611756
1652456120.4844415 -8.531931221710863 75.18687246536633 -0.14407490455054853
1652456120.884454 -8.436566522583767 75.77677661932168 -0.15777081978670066
1652456121.2844079 -8.327098025034381 76.35404094265532 -0.16923563965135383
1652456121.6844313 -8.235296868584719 76.93679177643929 -0.17674654996854458
1652456122.4845383 -8.049901651783024 78.09850753620543 -0.18283845177725147
1652456122.4845383 -8.049901651783024 78.09850753620543 -0.18283845177725147
1652456122.8848033 -7.972848108445028 78.6919676105403 -0.18207675273054258
1652456123.2850056 -7.904454417659053 79.29422987013282 -0.18417656512075375
1652456123.6837692 -7.868895639146686 79.94255739791896 -0.202056735599747
1652456124.0850344 -7.8557270771765175 80.51835501285444 -0.210421627720563
1652456124.4850326 -7.868577270382595 81.09635360604901 -0.2069481554747343
1652456124.8839114 -7.901314029088567 81.6926905786406 -0.20564524709570123
1652456125.2839484 -7.91707345603205 82.28624673414532 -0.2063164695661684
1652456125.683955 -7.945524047294313 82.87286709095375 -0.20418901713051463
1652456126.0839388 -7.969278044644021 83.40047993825189 -0.19643807725428705
1652456126.4838932 -7.954932151915145 83.85065417215547 -0.1805840001374197
1652456126.8838851 -7.87478655281722 84.26751933667195 -0.16847842855689396
1652456127.2851734 -7.745785823200883 84.61689501191135 -0.13113652868060796
1652456128.0851424 -7.288464866700977 85.4380277565406 -0.06896423249092562
1652456128.8851924 -6.626727479775965 86.34102266462911 -0.054210891100087116
1652456129.28401 -6.219250862849485 86.79608984728978 -0.06770958323650561
1652456129.6852973 -5.800071592148761 87.22195141015862 -0.07592109213745687
1652456130.0853996 -5.327097236607067 87.62334819444011 -0.10301275044911928
1652456130.885435 -4.395381811038071 88.28648430213525 -0.11121236064907294
1652456131.2854261 -3.905789960478778 88.5788851073156 -0.1066908331103811
1652456131.6854062 -3.3845999600256818 88.84716982970409 -0.11400616092143506
1652456132.0854309 -2.84444248679862 89.0907035989222 -0.12163429805837425
1652456132.0854309 -2.84444248679862 89.0907035989222 -0.12163429805837425
1652456132.4855874 -2.302633658622682 89.30317912653324 -0.1280597931446093
1652456133.2856688 -1.226595542264782 89.63816415174158 -0.11943941277148526
1652456134.085647 -0.09692655264542083 89.9115673150186 -0.11043739208613629
1652456134.4844458 0.47932291036155306 90.02309260335659 -0.10595904814790641
1652456135.28489 1.6797735277205774 90.19855970321106 -0.11363662489885479
1652456135.6849613 2.2757554528159716 90.24791685959975 -0.12159346264066073
1652456136.0850186 2.8709790392470964 90.27628718629524 -0.13295787251928415
1652456136.4850826 3.4543564514280405 90.29454869486611 -0.13929864310050274
1652456136.8850563 4.041909406466729 90.29442570049437 -0.14626520308353558
1652456137.2850802 4.64376796119852 90.27984682733091 -0.1560024790760077
1652456138.486276 6.358502129243043 90.09209438742721 -0.18093202855371993
1652456138.8862793 6.946236813977542 89.98527492060533 -0.1892408054263764
1652456139.285178 7.435142297511476 89.85625575263667 -0.1796986615445944
1652456139.6851926 7.918897648305219 89.6873078393102 -0.1592138925151551
1652456140.0851886 8.448623584213735 89.47151660666215 -0.14416204395843732
1652456140.486415 8.951199370492596 89.21595703298863 -0.13678839775247761
1652456140.886444 9.369835585056592 88.93306887279965 -0.131232391884374
1652456141.2851822 9.712290031908374 88.62105049346252 -0.12616775843179262
1652456141.2851822 9.712290031908374 88.62105049346252 -0.12616775843179262
1652456141.6853414 9.996552280178918 88.2851828669344 -0.1250117659063589
1652456142.0854566 10.21063610013173 87.94183332071454 -0.12476975226555545
1652456142.8841636 10.60764311251502 87.03186565197444 -0.12161597793335815
1652456143.2841518 10.833329233804072 86.48197351824959 -0.1261909571700279
1652456143.6853955 11.046781458366624 85.91256496663391 -0.1318318234568204
1652456144.4843175 11.462118479219782 84.81317737541124 -0.13495001190413294
1652456144.8844128 11.694871290598378 84.26159908698243 -0.1274964193248017
1652456145.2856555 11.918588232696962 83.70347086289368 -0.12681683802914276
1652456145.6856575 12.135782411182355 83.12773708935703 -0.1303969767399135
1652456146.0857182 12.341920996662576 82.55965169616177 -0.13472111741807843
1652456146.484424 12.535869087264913 81.9726930273685 -0.1459036315721439
1652456146.8856547 12.714427109033561 81.38662561592793 -0.16209881344413773
1652456147.2844093 12.87038763307189 80.80676260965576 -0.17884778693260325
1652456147.6844301 13.019549832024136 80.18844479539487 -0.21217201792634377
1652456148.085643 13.172669667010535 79.5841437337331 -0.2686536696974279
1652456148.085643 13.172669667010535 79.5841437337331 -0.2686536696974279
1652456148.484428 13.303124159759452 79.03014200114106 -0.2811366125921423
1652456149.2844398 13.543087183504372 77.95815288559201 -0.24966916439365433
1652456150.084549 13.72463026443182 76.86905814795915 -0.2080710561169639
1652456150.885807 13.78693434746544 75.7365599624041 -0.17533693406992168
1652456151.285951 13.776946773695478 75.16646832302513 -0.1616198856715408
1652456152.086005 13.678076564943801 73.9767486861679 -0.16739761318739985
1652456152.4849713 13.608830521480172 73.39657582309682 -0.16531729807132134
1652456152.884972 13.530814050837765 72.8133205913439 -0.16245245033796893
1652456154.0851815 13.418757518219568 71.10318524399386 -0.12114430818889638
1652456154.4851708 13.456719997294076 70.553665470864 -0.10166883495563842
1652456154.885294 13.519845542687094 70.01761344114168 -0.08450304628666047
1652456154.885294 13.519845542687094 70.01761344114168 -0.08450304628666047
1652456155.2855241 13.571847921387668 69.41867716906525 -0.07746694440585555
1652456155.6855462 13.63464469383192 68.82006595674937 -0.07064640573739436
1652456156.0855489 13.672171793611316 68.24041517183755 -0.05614109408219492
1652456157.2855225 13.657942179836002 66.43584682499272 -0.03708697553167806
1652456157.685527 13.639902957935004 65.82194445742525 -0.042088895047909
1652456158.0855258 13.606204959526679 65.21237121047764 -0.05345614922861383
1652456158.4855206 13.58616491676241 64.62032706904156 -0.053215588304658085
1652456158.8856106 13.542746530560514 64.00085358485954 -0.05909281599738833
1652456159.2856631 13.506012022338375 63.39336829628901 -0.06830953515545007
1652456159.6856523 13.489917061880977 62.786361060655764 -0.0696966758913029
1652456160.0856805 13.484086765040256 62.17033109778537 -0.07340751366536508
1652456160.485655 13.505689245795793 61.573008592155304 -0.07367592215750368
1652456160.8857799 13.555017426426758 60.98132365474248 -0.07553427923209965
1652456161.2858312 13.598484313795684 60.402120915631 -0.07486707080529026
1652456163.2853281 13.893357897596804 57.38033262133027 -0.09261178932629904
1652456163.6854136 13.947341374284072 56.80134235291597 -0.09574536646878384
1652456164.085399 13.99486903225305 56.225630126250394 -0.0921265977563209
1652456164.085399 13.99486903225305 56.225630126250394 -0.0921265977563209
1652456164.4854743 14.031386011724543 55.62159221704992 -0.09579005879476685
1652456164.8856294 14.046753376796342 55.03813293839049 -0.0997876726856973
1652456165.6856744 14.002364927200464 53.953357015305485 -0.0886872579982855
1652456166.0856633 13.934412071674092 53.40051373136677 -0.0828280996195889
1652456166.885811 13.760150507807637 52.24705877388745 -0.09067810369135643
1652456167.2859871 13.646747938867495 51.673676414888334 -0.0896682746830216
1652456167.6859894 13.523660659751595 51.098960719320395 -0.08973239018450993
1652456168.0860183 13.395110775008504 50.55029734990507 -0.07993895182936711
1652456168.8860977 13.10053710328116 49.41643432332411 -0.06059669696514269
1652456169.2861905 12.932748689346418 48.84758950117675 -0.05386292493572953
1652456169.6850414 12.741490808049678 48.24761642236116 -0.061894291331828305
1652456170.0850863 12.534528426577502 47.63496902797678 -0.10256962151260898
1652456170.8850865 12.177199752266004 46.57074248004387 -0.09409249308214554
1652456171.2851892 11.994157179152989 46.05505551485523 -0.06569608833036752
1652456171.2851892 11.994157179152989 46.05505551485523 -0.06569608833036752
1652456171.6853592 11.769594337040532 45.526535057930815 -0.05207288182331407
1652456172.0854416 11.516985467976351 44.97028336906385 -0.05458093827066013
1652456172.48544 11.282346459781742 44.429012213863565 -0.048992837596696176
1652456173.2855744 10.79602946922359 43.3075534128402 -0.0630073706487769
1652456173.6855507 10.590059715435833 42.77604945788413 -0.046099009247432265
1652456174.085587 10.397897898962293 42.19346448033325 -0.04101562094609926
1652456174.4856923 10.256000733732648 41.60568825411555 -0.031789889571122804
1652456174.8858292 10.140110726567576 41.01944277564918 -0.022588421696993044
1652456175.286 10.020507036971916 40.44736456868657 -0.012740078399633342
1652456175.6849763 9.901948098372511 39.86029638955962 -0.007150394364408036
1652456176.0862937 9.784409748251704 39.26084642857407 -0.004483502522061422
1652456176.0862937 9.784409748251704 39.26084642857407 -0.004483502522061422
1652456176.4863322 9.664469462742042 38.660402868852835 -0.007606917244796424
1652456176.8850703 9.565470246960155 38.06899879042378 -2.677803420197966e-06
1652456177.286322 9.45168991442626 37.473089266181034 -0.0035974233286596158
1652456177.6850827 9.344439116964223 36.875196699297796 -0.006730127863570412
1652456178.0852458 9.232097465563287 36.30336958642059 0.0012309316894561217
1652456178.485443 9.095737079444465 35.70486226211352 -0.011294648074731573
1652456178.885437 8.947301241537746 35.1451888728819 -0.01207932584466051
1652456179.2854433 8.767830984589484 34.599911482441655 -0.010298813020545194
1652456179.6854086 8.565866670393834 34.0593541609349 -0.008639628200752592
1652456180.0855415 8.321388654200383 33.57299894783073 -0.0015231037013825888
1652456180.8868365 7.734278872431528 32.66267841555646 0.010893498838357163
1652456180.8868365 7.734278872431528 32.66267841555646 0.010893498838357163
1652456181.286986 7.403401380005775 32.201323431991206 0.019173530525164295
1652456181.6857178 7.0563048615212445 31.74056906342205 0.029000552071697216
1652456182.0856867 6.70161187078541 31.279322921336465 0.040516134985251945
1652456182.4857528 6.336088557987544 30.82172026558382 0.04890813063489817
1652456182.8858933 5.955948977292531 30.36924024861598 0.05348624691701698
1652456183.2859206 5.56453433323211 29.918439234804072 0.05068457103814639
1652456183.685894 5.165554350805387 29.472211677519148 0.04505835427795206
1652456184.0859745 4.755367270365772 29.037867661272607 0.04008736546526048
1652456184.4859014 4.3481896018244015 28.61319805922708 0.0428673765003981
1652456184.8871841 3.9321981871804415 28.187103712586236 0.042447447259959775
1652456185.2860708 3.5086032136065235 27.780915730207646 0.04464467588316609
1652456185.6860538 3.0706184991919194 27.377942083062216 0.04345546457012567
1652456185.6860538 3.0706184991919194 27.377942083062216 0.04345546457012567
1652456186.0861146 2.6352277185644635 26.991105124453796 0.04639114667075113
1652456186.4874437 2.1911534606600203 26.597807613472867 0.04887131051658353
1652456186.8861487 1.7431599604811794 26.2086829663971 0.05259042923082738
1652456187.286191 1.288006260583911 25.79038593871714 0.05128642806238698
1652456187.6861436 0.8618581892091992 25.36737991276122 0.04818069137562181
1652456188.086152 0.4919956308235065 24.952236493228277 0.051923279854307156
1652456188.4862442 0.13736886287431105 24.49710745961903 0.05710005179336737
1652456188.8850996 -0.1993995650861553 23.993040009416234 0.05921597385577837
1652456189.2851965 -0.5121422552000627 23.458781757387918 0.058759998412658984
1652456189.6851766 -0.7894452323171404 22.923555347819367 0.06292021566040748
1652456190.085169 -1.0492783959787495 22.376643260898902 0.06408101532744792
1652456190.485298 -1.289410867268895 21.842519671271052 0.0711535858471805
1652456190.8854654 -1.5249061235505383 21.303485561414323 0.08547008819252933
1652456191.285425 -1.763089648348057 20.739572915045983 0.08965517497684355
1652456191.6854112 -1.9902292938360429 20.135855665720072 0.07347716859977202
1652456192.0854201 -2.19635682991375 19.60699659904359 0.07999692681540574
1652456192.4854138 -2.3932157900470195 19.126036638292987 0.12269626922396887
1652456193.2854326 -2.9086098096320665 18.23361374460346 0.12622178894781697
1652456193.6854167 -3.181809021469645 17.927130338241906 0.12583673740649182
1652456194.0854056 -3.4209190916097523 17.714258393481174 0.13355580420867705
1652456194.885836 -4.015529927711404 17.410392847062894 0.14658562646983045
1652456195.2859168 -4.404719326267056 17.289963282409524 0.1494250704651468
1652456195.2859168 -4.404719326267056 17.289963282409524 0.1494250704651468
1652456195.6859293 -4.729440654097987 17.278079339729352 0.149711191162861
1652456196.0859058 -5.035213917028241 17.349026039065638 0.14887281494411478
1652456196.485939 -5.433188811432837 17.515013610219412 0.15624872348249463
1652456199.2856274 -8.785067403944687 19.812085975301773 0.17669591466728204
1652456199.685654 -9.190217224436948 20.210952588980977 0.17562049042666503
1652456200.0857327 -9.556180957167127 20.597050700303296 0.17568941904860053
1652456200.8856664 -10.05967468048044 21.180098365286554 0.17647261657170626
1652456201.2856748 -10.231892850940337 21.371262568362404 0.1749658683518788
1652456201.6856627 -10.382681430251571 21.57279365461593 0.1777679383681467
1652456202.0856688 -10.558856760679161 21.814057343785613 0.17938598503796555
1652456202.4857504 -10.762340719575729 22.09180846521707 0.17898058896884128
1652456202.8859234 -10.9647765007867 22.383239492347553 0.17699485817747007
1652456203.2859068 -11.123635652820102 22.63555611373679 0.17334060297010276
1652456203.6859214 -11.275291863408487 22.88312380788506 0.1741656915359029
1652456204.0859 -11.438035544632413 23.166656095253856 0.1733294927329051
1652456204.4859133 -11.632621727502334 23.526242518721123 0.1698038287551932
1652456206.0866425 -12.4787818730712 25.17580252693225 0.16606005690676393
1652456206.8854313 -12.736347115310926 25.77822044836119 0.16725476610197845
1652456206.8854313 -12.736347115310926 25.77822044836119 0.16725476610197845
1652456207.2854757 -12.925881840894238 26.279318060461513 0.16525940369277511
1652456207.685449 -13.097097308582427 26.759033166830825 0.1606833752882215
1652456208.0866737 -13.168654996834592 26.98215483436787 0.15959426078724961
1652456208.4854126 -13.177904126497692 27.02760048181566 0.16104442262772856
1652456208.8854747 -13.177778784427261 27.023154908595266 0.16222556082941386
1652456209.285602 -13.177730138069744 27.022898389361774 0.16208516334742434
1652456209.685548 -13.177385410842604 27.021987990980826 0.16200339523961935
1652456210.0855694 -13.17749581293981 27.022247683663345 0.16203361916344125
1652456210.485566 -13.177329731488532 27.021962297570585 0.16214750549975732
1652456210.8855453 -13.178510263817762 27.02127237108585 0.16238729040478486
1652456211.2856538 -13.19672362931182 27.0717953348056 0.1652845953894445
1652456211.6857247 -13.240536676295008 27.19871569243333 0.16785397974591595
1652456212.0856504 -13.324414029205569 27.45575437413075 0.1686972298201716
1652456212.4856784 -13.42674497847526 27.751392878050577 0.16775358600260798
1652456212.8856912 -13.535783166093504 28.052006357469843 0.16981154815393915
1652456213.2856643 -13.632572532133771 28.383020153440498 0.16967710629246768
1652456213.6856718 -13.756379546111283 28.781830084170622 0.16488936025267448
1652456214.085655 -13.88701129943486 29.230499717415917 0.15355835826796774
1652456214.4857006 -13.99977930453528 29.657045368044187 0.15703749386164834
1652456215.2857614 -14.15336977198183 30.632704902181143 0.14902327157583548
1652456215.685832 -14.176321212740165 31.12377261144814 0.14458647545785464
1652456216.0846553 -14.17076336724816 31.641454818364934 0.14890044633294994
1652456216.4846308 -14.113896806037312 32.22408365831414 0.13936414106757977
1652456216.884644 -14.016631441733184 32.79114680218627 0.13788289867339903
1652456216.884644 -14.016631441733184 32.79114680218627 0.13788289867339903
1652456217.2849264 -13.880138807856623 33.34602609481438 0.1394255549759104
1652456217.6849751 -13.723444327637491 33.916004665468606 0.1387406307831525
1652456218.4849994 -13.360106660193493 35.05680083162814 0.13007805317041388
1652456218.8853106 -13.157973279383969 35.60330206088082 0.12693435261625396
1652456219.2854059 -12.946037751210946 36.15711600799416 0.12459529612741355
1652456219.6856863 -12.720181617212708 36.7238615827946 0.11776958400754312
1652456220.4857097 -12.331113865219065 37.8464937245119 0.10750341202037414
1652456221.2856627 -12.069008125772053 38.97579259315076 0.10411381988702016
1652456221.685692 -11.93950088335806 39.53768162338885 0.10742803359867967
1652456221.685692 -11.93950088335806 39.53768162338885 0.10742803359867967
1652456222.0857139 -11.793568532287187 40.14005965691324 0.09766063460939012
1652456222.4856865 -11.649449392668261 40.733203547686195 0.08648048105412542
1652456222.8857281 -11.538949415939607 41.29717754149573 0.09252734792931247
1652456223.2857873 -11.438296406283603 41.90039971237479 0.09753793214159082
1652456223.6857767 -11.370888958093815 42.49707354256168 0.11333877373601545
1652456224.0857809 -11.33385733803695 43.09362331262538 0.12288419285051166
1652456224.88609 -11.342941596718546 44.32703941375988 0.10639664210995156
1652456225.2848113 -11.371950831083396 44.875230702343906 0.1274133068267333
1652456225.686066 -11.411196125214602 45.53430833315312 0.10570470247984293
1652456226.4860542 -11.4930585349308 46.744065901869234 0.08977066848837396
1652456226.4860542 -11.4930585349308 46.744065901869234 0.08977066848837396
1652456226.8860896 -11.556590030809431 47.3499400154728 0.08630248056131239
1652456227.2848375 -11.613225992615387 47.94730189507776 0.08210247847470807
1652456227.6861856 -11.648416743884223 48.5089155092262 0.07596083634454422
1652456228.0863674 -11.634533292535995 48.98165712092157 0.0718371360794447
1652456228.4864428 -11.606417716369112 49.52948108825717 0.0687099813402384
1652456228.8851786 -11.576292459726176 50.13524692455768 0.060753593791461766
1652456229.2852895 -11.528310389287778 50.71634175201051 0.056765008561092636
1652456229.6867044 -11.438282906541097 51.2954540568808 0.04834197425303188
1652456230.0854588 -11.332098068367031 51.86771464765205 0.044265741955358914
1652456230.4854255 -11.218358868574526 52.44731795208609 0.04203472792853896
1652456230.886808 -11.091559324553188 53.03093805006451 0.036824138497613845
1652456231.286953 -10.989082043858382 53.62071707946443 0.034292911793223746
1652456231.286953 -10.989082043858382 53.62071707946443 0.034292911793223746
1652456232.0856974 -10.901402480660536 54.73810877695204 0.025647607337111106
1652456232.4894254 -10.921777856690639 55.27637239664094 0.024558082360894046
1652456233.287013 -10.984467356377749 56.45523011253479 0.01974071331724525
1652456233.6858413 -11.019876706203057 57.0726349159106 0.009087598833310895
1652456234.0859485 -11.057328415650382 57.66361896021324 0.005429061887963299
1652456234.4846437 -11.095772379398056 58.275013147358116 -0.0029066403662042772
1652456234.8858948 -11.128959640247274 58.88185380867942 -0.0147976654086662
1652456235.2858946 -11.158215896301662 59.47183000238435 -0.021329441334386745
1652456235.685897 -11.158047089319979 60.03792289444213 -0.024853732522270938
1652456235.685897 -11.158047089319979 60.03792289444213 -0.024853732522270938
1652456236.0859323 -11.123752349013337 60.533210512121244 -0.022380015530467146
1652456236.485991 -11.051860519794687 60.983235713591895 -0.014657544200003592
1652456236.8861384 -10.936631426032598 61.488388282738995 -0.01005140912665034
1652456237.286263 -10.801613944130231 62.054552088265915 -0.007012104082167764
1652456238.0864205 -10.489875384834114 63.211878699603446 -0.00785021782927911
1652456238.886498 -10.149666633635256 64.32866843483185 -0.0058791418375226945
1652456239.2865338 -9.958361230019918 64.89913070484428 -0.005198786226854796
1652456240.4865513 -9.299198355036872 66.56431289174851 -0.024684499265745147
1652456240.8865366 -9.060688013990593 67.10705789058727 -0.031872817183793756
1652456241.2852721 -8.817063074668745 67.6740392427763 -0.04214392326785621
1652456241.6866345 -8.586709792894005 68.26604720343866 -0.057144031903624104
1652456242.086634 -8.399533284557002 68.84124346072333 -0.06993108961898142
1652456242.4855452 -8.226836931791944 69.40955149959032 -0.08254204898646028
1652456242.885561 -8.04139450374118 69.97205148230292 -0.09385790016814458
1652456243.685545 -7.686954709374632 71.11601444535363 -0.11090410176492102
1652456244.08555 -7.5429765941453795 71.70529280698784 -0.11179271845480934
1652456244.8857238 -7.304579406186491 72.90348277502504 -0.13183749924288254
1652456244.8857238 -7.304579406186491 72.90348277502504 -0.13183749924288254
1652456245.6859498 -7.067589902597099 74.1239966866977 -0.16892752602486572
1652456246.0859227 -6.9615463711321155 74.70989671432969 -0.19435410873394693
1652456246.4859219 -6.851985391097131 75.30526539865134 -0.21137796327055838
1652456246.8859112 -6.737226607990905 75.90118813378022 -0.2313972717505071
1652456247.2859118 -6.627122021835369 76.46857181264257 -0.23789870153096376
1652456247.6859038 -6.501604021580249 77.0271380406089 -0.24086770498204507
1652456248.085916 -6.363302247768495 77.57691765689064 -0.2406753923481959
1652456248.4859414 -6.185647970463009 78.11706336654075 -0.24646296880365282
1652456248.8860464 -5.972090537275378 78.61467855941385 -0.25729236887559825
1652456249.28603 -5.745795637502823 79.1503342055495 -0.2677374903117231
1652456249.6860852 -5.531638965114318 79.70572483942509 -0.2744280265443171
1652456249.6860852 -5.531638965114318 79.70572483942509 -0.2744280265443171
1652456250.4850464 -5.179621133194615 80.80785652880175 -0.25181034382079287
1652456250.885107 -5.002017482300218 81.38619145959171 -0.24909864997918987
1652456251.2863257 -4.853980161082042 81.96817205701134 -0.24810414963095548
1652456251.6864374 -4.736293682361769 82.54193985545146 -0.24357241019149803
1652456252.0865102 -4.616945409337902 83.14352846903255 -0.24748531310420654
1652456252.4865403 -4.50841475848673 83.71315553369297 -0.24607272615492967
1652456252.8865864 -4.413601587632236 84.23298443671285 -0.22117906437151816
1652456253.286516 -4.315451844305201 84.7922693907205 -0.18391416516872663
1652456253.6865213 -4.211747268255884 85.37406339529471 -0.15576344524643293
1652456254.0865178 -4.11303492970724 85.96341356020086 -0.13660450060917226
1652456254.48657 -4.014188402183805 86.56611998368086 -0.12715605981942943
1652456254.48657 -4.014188402183805 86.56611998368086 -0.12715605981942943
1652456254.8852966 -3.9168273691814406 87.17641303239594 -0.12664736810680075
1652456255.2866833 -3.828905537018713 87.74501906033252 -0.10664911838084615
1652456255.6866865 -3.728908632165407 88.35508152068107 -0.10964445777576454
1652456256.4868226 -3.4746955124264076 89.53690832019959 -0.11574398987501927
1652456256.885724 -3.3128375683232605 90.10003752266482 -0.11794626469483421
1652456257.285645 -3.140617819106282 90.63971636249883 -0.11320965710250605
1652456258.0856705 -2.688820339972885 91.7153023949318 -0.11236760785244165
1652456258.485853 -2.418268042918818 92.14240553592857 -0.11567454650302608
1652456258.8859625 -2.1283182748226395 92.50174330976522 -0.1140085951702898
1652456259.2859733 -1.7948157326597212 92.82300228902938 -0.11192498984383192
1652456259.6860754 -1.4133732018638696 93.09890897807438 -0.11582659917342225
1652456260.0860898 -0.970592473731827 93.36928090341377 -0.11598651616723732
1652456260.4860067 -0.471393316531028 93.65725280003747 -0.11258706190235165
1652456261.2860265 0.5640038299995922 94.11580152796994 -0.10628895296833982
1652456261.6860313 1.0706105070611471 94.23705861152222 -0.10569103398904012
1652456262.0860543 1.610657661074626 94.32907531655636 -0.0970763796398953
1652456262.8861766 2.770202213952828 94.45812251615283 -0.08145815534126077
1652456263.286301 3.3555343918199227 94.4855205417418 -0.07347571300259997
1652456264.0853338 4.5512361748165375 94.47955556476866 -0.068591080040103
1652456264.4866927 5.144098409869095 94.42296667798072 -0.0742816176805266
1652456264.8854508 5.733132682826017 94.32642191963566 -0.08582366527920515
1652456265.285456 6.288832898324067 94.18540192286001 -0.09821546289280131
1652456265.6854353 6.839435387108928 94.02186272698341 -0.107577726180376
1652456266.4855556 7.914763179732489 93.61505326982837 -0.11437846130691526
1652456267.2870753 8.84139789192205 93.07457436108503 -0.09241088854954943
1652456267.6870801 9.297509938568759 92.72740940319898 -0.086221722647707
1652456268.087072 9.737644767975695 92.33960647075898 -0.08936929844876731
1652456268.4870849 10.128807848707112 91.93247008909127 -0.08900762773282256
1652456268.4870849 10.128807848707112 91.93247008909127 -0.08900762773282256
1652456268.8858883 10.492665506114257 91.50570664650934 -0.08572220446419129
1652456269.2859585 10.819376165560989 91.0380696874983 -0.08162888995746567
1652456270.0860932 11.434518497655851 90.03094288601619 -0.08327941151279467
1652456270.486041 11.706089150726854 89.50991058151573 -0.08507782997267921
1652456270.886042 11.95511228022388 88.98509318582495 -0.0858246060663807
1652456271.2860188 12.19420611559093 88.46200374082449 -0.07978090078133399
1652456271.6860225 12.444371172487756 87.9302614829833 -0.07283669055475403
1652456272.0860298 12.686479356354596 87.37937787873193 -0.07030060644426514
1652456272.4860263 12.917017561666583 86.80859701905982 -0.07685708260698038
1652456272.8860362 13.12056411897936 86.24325866958684 -0.08755272937944295
1652456273.2860274 13.32123022421434 85.68455678614988 -0.0992905017250077
1652456273.6860247 13.504418640450773 85.1472040666613 -0.09759023872632866
1652456274.0860193 13.670515769068036 84.5953360173853 -0.0922192106056417
1652456274.4860315 13.804900147969025 84.03806697751835 -0.08416985963297416
1652456274.8860605 13.918282363475143 83.45334628589885 -0.08507323795829222
1652456275.6862745 14.115587547350845 82.25114795154211 -0.1093607150422446
1652456276.4864523 14.256114191401988 81.06037859656757 -0.14756519473701973
1652456276.8864396 14.307390016528483 80.44788485806993 -0.16873775799956608
1652456277.2877088 14.324590154327183 79.82575748872378 -0.2175661533427184
1652456278.086562 14.313160104785826 78.66975611311469 -0.27078778643667223
1652456278.4896388 14.276605059651274 78.13748260277744 -0.25406642838873095
1652456278.888596 14.223232713485508 77.59818859467225 -0.23448536699495318
1652456279.287839 14.141582456007345 77.04452352464759 -0.22096827199216065
1652456279.6866863 14.054552577804781 76.50370142337101 -0.19409960732375742
1652456280.0854392 13.94867965195878 75.93552213441092 -0.18146565477644502
1652456280.886659 13.708563834392791 74.7687319552192 -0.165637985536758
1652456281.2866688 13.5781787083455 74.16301538879742 -0.1726183562104107
1652456281.6853988 13.463014910591852 73.5716940805699 -0.171412409382195
1652456282.085396 13.354490629565564 72.99261094575613 -0.16677387503059937
1652456282.4866407 13.245534500233536 72.4157054939503 -0.1606650229936874
1652456282.8853815 13.14109532810729 71.84286647687024 -0.14960108993414772
1652456283.2866755 13.035616150110734 71.2793735282554 -0.13348365609903343
1652456283.6866875 12.92748228859287 70.71364111705904 -0.11431593602132331
1652456284.0854433 12.807185807704204 70.13167720218175 -0.09361458259751987
1652456284.486824 12.66713072134409 69.52901703357985 -0.09057543371283905
1652456284.486824 12.66713072134409 69.52901703357985 -0.09057543371283905
1652456284.8870602 12.535731690661429 68.96306919612336 -0.0824998469794492
1652456285.287061 12.388700385803908 68.36866194235813 -0.07767130054789781
1652456285.687066 12.239973540848414 67.76845125975015 -0.08227725631757596
1652456286.0870845 12.08647484079032 67.1980330315671 -0.08294581229646858
1652456286.8871436 11.78763126815235 66.03498088121174 -0.08435183152484205
1652456287.2860563 11.672008972974243 65.46337192669773 -0.07083982099038794
1652456288.4860723 11.787365835962515 64.05562793445702 -0.05449454719020125
1652456288.8860517 11.881541633890542 63.46075463952852 -0.052596249468947975
1652456289.2860558 12.00798193707669 62.83252236680978 -0.06228127291732238
1652456289.2860558 12.00798193707669 62.83252236680978 -0.06228127291732238
1652456289.687466 12.157113982354094 62.25143380881837 -0.06553804077379402
1652456290.0861902 12.32389088082148 61.66593173026293 -0.06296653743014655
1652456290.4861753 12.529701416226825 61.06423969313476 -0.06767326145405539
1652456290.8862507 12.745847711982819 60.50738434302907 -0.06964217322597988
1652456291.2864196 12.97913303399406 59.95941991510083 -0.0662069521382678
1652456292.0864196 13.487210060590034 58.83173520047534 -0.07844103235691924
1652456292.8863971 13.995042175953643 57.74192077257917 -0.09177423963289064
1652456293.2864013 14.191472253586007 57.224761125712995 -0.09873823324026271
1652456293.6864111 14.341300002509893 56.72636608129075 -0.09518559894483095
1652456294.0864453 14.444861463572316 56.22427893674836 -0.08951093286645032
1652456294.0864453 14.444861463572316 56.22427893674836 -0.08951093286645032
1652456294.4864445 14.495114459992152 55.74700090426839 -0.09082727843888605
1652456294.886447 14.471516889247493 55.31869625120957 -0.09305247236793984
1652456295.286434 14.446879990492764 54.79146306729038 -0.08880975002821553
1652456295.686418 14.398126575538235 54.219412548396974 -0.08337868191233844
1652456296.0864275 14.32357914340389 53.64798035786664 -0.07485381984965164
1652456296.4864402 14.2172128438377 53.037485992477215 -0.07867568542463804
1652456296.8864405 14.104208355707225 52.45504154481634 -0.08238253140450569
1652456297.2864163 13.976437644408836 51.884952288364055 -0.0824847800548266
1652456298.0864084 13.717269231719888 50.7303413559502 -0.07828584448805503
1652456298.4864352 13.625278775637678 50.13817148439494 -0.06870385484934305
1652456298.8864665 13.553305024560268 49.536590801553594 -0.06195894158226714
1652456299.2864254 13.529644920086428 48.934971419110866 -0.049615292661609245
1652456299.6864345 13.537381706411104 48.31411863395774 -0.04510597433548813
1652456300.0864387 13.57234557170553 47.6785412269099 -0.0495388971236593
1652456300.4864285 13.604922821944383 47.05527652612254 -0.06438766898654369
1652456300.8864534 13.633991513129233 46.44652071765482 -0.08667537233249478
1652456301.2866166 13.66122537605133 45.87267329729956 -0.0816252010860451
1652456301.6865456 13.698450745864273 45.28384740305264 -0.08062225190407793
1652456302.0865617 13.74942642741209 44.70079113772648 -0.06756267395773663
1652456302.8865266 13.834618157468768 43.50419196590966 -0.05456402408869207
1652456302.8865266 13.834618157468768 43.50419196590966 -0.05456402408869207
1652456303.6867015 13.790183547314438 42.41349629444723 -0.015705286639163984
1652456304.8869362 13.601497785980387 40.63173141912018 -0.003356068649660343
1652456305.2869403 13.553301240795165 40.035234236576315 0.0004315791844363426
1652456305.6869724 13.487656644855567 39.440387319798795 0.002810270169857798
1652456306.0869546 13.415821774387673 38.84175552461683 0.0025283215420018046
1652456306.4869602 13.333156340012708 38.24776323284897 -0.0009732116266690238
1652456306.8870142 13.255122503424403 37.65074770305628 -0.005713301586947189
1652456307.2870605 13.169906377655686 37.067905786840974 -0.006690790134949998
1652456307.687034 13.0762472125137 36.494370511535415 -0.0026400725904039968
1652456308.0870793 12.979853340209015 35.90827707036066 0.0009705338689171561
1652456309.6870573 12.724235317511175 33.53671771505359 -0.01152311230626682
1652456309.6870573 12.724235317511175 33.53671771505359 -0.01152311230626682
1652456310.4872403 12.755388347817899 32.35425512162004 0.0005393345913893288
1652456311.2873108 12.860018322357487 31.13633493774425 0.0005106809856355587
1652456311.6860478 12.92428552281485 30.520878124099525 -0.010371867911033256
1652456312.0873055 12.974150313102502 29.94751710124877 -0.006139841953730213
1652456312.486066 12.965789990693123 29.394172582402227 -0.001464908967979739
1652456312.8871853 12.917689024648052 28.825936831028187 -0.009808738515942272
1652456313.287173 12.829441395500899 28.295401693405005 -0.007565517839781238
1652456313.687145 12.678004282632472 27.77790028500976 -0.005715467441357619
1652456314.0871394 12.480366948379892 27.279114765780037 -0.0005239592598063059
1652456314.4871976 12.22387895206176 26.81581891103294 0.003438409710397966
1652456315.6873095 11.175110315626382 25.651786164622855 0.016776442393881347
1652456315.6873095 11.175110315626382 25.651786164622855 0.016776442393881347
1652456316.4873972 10.275492418122028 25.248664011550865 0.02104896627690403
1652456316.887408 9.824396029969037 25.17088473980521 0.029131928072424318
1652456317.2861547 9.358432044829673 25.182252279352333 0.043753685490965616
1652456317.6861491 8.819103019852932 25.25076248909286 0.03914913110399934
1652456318.087405 8.29450486365863 25.374183619888367 0.044034679151640485
1652456318.486135 7.749708574021139 25.522529930722357 0.05617450547932587
1652456318.8873816 7.184803634174285 25.719011224290863 0.051842568092196575
1652456319.2875733 6.626717817994546 25.92345245969409 0.05147057619377049
1652456319.6864445 6.045026250579566 26.108826516193496 0.039403324198167416
1652456319.6864445 6.045026250579566 26.108826516193496 0.039403324198167416
1652456320.086467 5.620658439901096 26.20225408005033 0.040493750612856705
1652456321.2866428 4.141465041699517 26.397361270184376 0.041871855610384284
1652456321.6866622 3.632416602824474 26.394597913982267 0.04916880517211082
1652456322.0866594 3.1249466632265843 26.344619511925572 0.04905958406734588
1652456322.4866605 2.533375949165505 26.295541165869288 0.04843997996780253
1652456323.2882082 1.3165255249606442 26.154285442331016 0.04591561636103848
1652456323.6871955 0.7199807778129408 26.08079670494076 0.04859943166470114
1652456324.0871556 0.11882411308301499 26.001743937970385 0.050899195884695686
1652456324.487167 -0.4800449284488941 25.922146957540377 0.05070620606455903
1652456324.487167 -0.4800449284488941 25.922146957540377 0.05070620606455903
1652456324.889797 -1.0645374720440994 25.85180361984834 0.05609728586101623
1652456325.6874413 -2.2361495541332896 25.773687735752233 0.060414584172304206
1652456326.087575 -2.8034669192984065 25.766355263278804 0.07568944727992907
1652456326.4875371 -3.380371383500588 25.782923495102423 0.0844449617314154
1652456326.886283 -3.9443960013792783 25.845328540303218 0.09083975804278853
1652456327.2875407 -4.5230829040433935 25.940109413936412 0.09377583296751589
1652456327.6864707 -5.083130002215016 26.074819966828883 0.09550430772341117
1652456328.0865324 -5.6263897527571824 26.250524181283268 0.09944884938777153
1652456328.4852808 -6.1141781625801634 26.462392710145423 0.10643283588574692
1652456330.486586 -8.412114817207437 28.167011466987724 0.11465241749329981
1652456330.8878405 -8.809938874802556 28.567016504437944 0.12889251491658743
1652456331.6865878 -9.577976694101316 29.4272653626404 0.14633505977478195
1652456332.4866889 -10.317656689412033 30.3814115389118 0.13035309925829286
1652456332.8868408 -10.66319230457312 30.866140697909493 0.12735324132904996
1652456333.2867649 -11.001424970469957 31.380658614127515 0.11122998318245912
1652456333.68676 -11.30939934169527 31.896570876777304 0.09375498298737264
1652456334.0867133 -11.581337607357415 32.414211222971474 0.08546520894564262
1652456334.4866567 -11.84640479668627 32.92008493374035 0.08706542468800664
1652456334.888151 -12.029076291131629 33.331512001990774 0.09242923144946368
1652456335.2869425 -12.173038860643679 33.03753191288807 0.11892173746026528
1652456336.487147 -13.030527805363034 35.55315330786544 0.11673030076862562
1652456336.487147 -13.030527805363034 35.55315330786544 0.11673030076862562
1652456336.887176 -13.191394504716003 36.06254628974827 0.12222254662344403
1652456337.2871528 -13.319761494391903 36.60381095429594 0.12683134554911402
1652456337.6871557 -13.418176990856624 37.16576250966632 0.12175875710192677
1652456338.0871885 -13.49910919430672 37.74811729637263 0.11793187369153707
1652456338.4871862 -13.567056379918133 38.33019737900692 0.11860075254741742
1652456338.887177 -13.616293356044507 38.93107688484415 0.1122849733031252
1652456339.2872438 -13.663268091398939 39.51564007395095 0.1102374512214017
1652456339.6871572 -13.691572256294458 40.09511158558561 0.1140952224663294
1652456340.0871375 -13.703140822461757 40.688502125155324 0.11495040594480975
1652456340.4871483 -13.697204272127935 41.27826207371112 0.11385867216325052
1652456340.887301 -13.673987812616888 41.86464449616189 0.11368836088424517
1652456341.288571 -13.639604322376323 42.45154514789333 0.11314213983550031
1652456341.288571 -13.639604322376323 42.45154514789333 0.11314213983550031
1652456341.6886187 -13.593916247223563 43.055303354481524 0.10958462517783812
1652456342.0873492 -13.529246217201136 43.68012329481544 0.086446374499791
1652456342.4874437 -13.392575371246075 44.150262782096746 0.0769052995601421
1652456342.8875697 -13.250948334235854 44.59190993202158 0.11087887480424694
1652456343.2875478 -13.03785595749364 45.150059073704476 0.1075188891000244
1652456343.6875577 -12.817127880148686 45.728857508932926 0.10643359587586482
1652456344.4875731 -12.362685277772893 46.83239895267417 0.10069925705132549
1652456344.8877296 -12.149265844355604 47.38633985650611 0.09458158299455831
1652456345.2878582 -11.965125131570193 47.955688293677085 0.08542998830011181
1652456345.6865616 -11.797095581647532 48.532659326248734 0.07833189606628649
1652456346.0865328 -11.66136798408187 49.118264529978035 0.07277748213828074
1652456346.4877877 -11.557897558172055 49.70039477317613 0.06393858888298103
1652456346.4877877 -11.557897558172055 49.70039477317613 0.06393858888298103
1652456346.8867407 -11.486234822108493 50.27968527683396 0.055956124300873517
1652456347.2879782 -11.45064632778875 50.84875831784615 0.05650479843634676
1652456348.0868304 -11.426065904105833 52.04523509253772 0.040612244587682006
1652456348.4868233 -11.413380494053463 52.65111936079741 0.034192803925919224
1652456348.8868046 -11.380035202740721 53.229188227070395 0.02755975274584868
1652456349.2868142 -11.30598186954117 53.701051168040806 0.02875339326805046
1652456349.6867979 -11.188753436913942 54.16006278906079 0.030703847782162952
1652456350.0867987 -11.028703179447369 54.704907171274954 0.027289294782573276
1652456350.486842 -10.864217452362553 55.28513962972559 0.023056073687897083
1652456350.8883364 -10.6943892799814 55.8537271183168 0.021294734180064667
1652456351.287316 -10.519196841819038 56.4423966412333 0.01493754482359852
1652456351.687324 -10.352166471945061 57.04444005783343 0.004681553417282852
1652456352.0873082 -10.210843150313003 57.633298538009456 -0.0007834162141567846
1652456352.4872818 -10.078575896071023 58.23936324615735 -0.00933426588176145
1652456352.8874972 -9.973685433560952 58.84781233809277 -0.02196372693882509
1652456353.2875853 -9.905007637386078 59.43323916143041 -0.02906117259037494
1652456353.2875853 -9.905007637386078 59.43323916143041 -0.02906117259037494
1652456354.0864189 -9.871590818040879 60.60255200579783 -0.025441223249502237
1652456354.4865663 -9.907266876615196 61.20487580950916 -0.021403584932028374
1652456355.2865312 -10.074340529299576 62.39707783385771 -0.01337370362942486
1652456355.6877782 -10.207369022593689 62.995893541385584 -0.011523689136901827
1652456356.086556 -10.319717612763817 63.57558156840538 -0.009905160669899243
1652456356.886782 -10.49695909804781 64.73553052546308 0.0029717671874246177
1652456357.686962 -10.537077216186312 65.83070325923755 -0.002916346019073923
1652456358.4860911 -10.386550989203087 66.87922622181885 -0.007491028225192847
1652456358.886051 -10.288665664893593 67.44609409029066 -0.004336323389256019
1652456359.2860174 -10.185355577752006 68.04610828345493 -0.005265606655952604
1652456359.68729 -10.06796171844983 68.64987808500342 -0.011811872688125835
1652456360.0860279 -9.929267006029242 69.23815540188815 -0.02307584057504583
1652456360.0860279 -9.929267006029242 69.23815540188815 -0.02307584057504583
1652456360.4860623 -9.802529370396577 69.82642144736299 -0.03353864285882352
1652456360.8860385 -9.664116778835634 70.40399568249308 -0.04253822743825805
1652456361.2861512 -9.521852228846996 70.97650838316582 -0.04851965768145727
1652456362.0863056 -9.193147037430755 72.12625438266676 -0.06591888438840621
1652456362.8864377 -8.835258563581014 73.28819786625903 -0.09506939066559889
1652456363.286549 -8.643965055051254 73.85844330032151 -0.10965098542112084
1652456363.686726 -8.45179270128667 74.4507470636099 -0.1285599682980742
1652456364.0866437 -8.283967134245927 75.04575356111278 -0.14851085615637993
1652456364.4866385 -8.146214577628719 75.63284077452192 -0.16484217016176297
