1652456301.775507 13.834504402192195 46.213101257220444 -0.10691480634317224
1652456302.1743045 13.907385806811664 45.628353824523955 -0.09513662107298282
1652456302.575529 13.969347339563061 45.03085706934411 -0.09436674216559193
1652456302.9755006 13.99339106050883 44.42989842426826 -0.08789655277250374
1652456303.3742378 14.014260271177541 43.87602062569128 -0.09700384304050075
1652456303.7767205 14.006453986060375 43.400307985008155 -0.09929291767037862
1652456320.1756938 6.401322448874421 25.788380682755722 0.01010227965037791
1652456321.37418 4.967166365177899 26.108573909913737 0.0089461698031858
1652456321.7754428 4.493418655955274 26.197611107975625 0.00607560769108878
1652456321.7754428 4.493418655955274 26.197611107975625 0.00607560769108878
1652456322.175563 3.9788779340818934 26.18697806794247 0.004785848389476266
1652456322.574386 3.3852783356358955 26.144452069306226 0.011419057434356228
1652456322.9756134 2.7801537434704002 26.08356471949451 0.010871677348007813
1652456323.3743563 2.166741953965925 26.017924408480035 0.01428446651336962
1652456323.7743611 1.574647462102801 25.948815968466242 0.013245468021778783
1652456324.174352 0.9725198611039847 25.87856658582581 0.010402019749804314
1652456324.575568 0.3778615746775955 25.802137690252888 0.011595411728469063
1652456324.975335 -0.21178080209325323 25.71346307009581 0.010950516529588672
1652456325.375342 -0.8208792094593047 25.637415278025664 0.01334385528802251
1652456325.7752957 -1.382460001396547 25.577717668190196 0.011491614730671007
1652456326.1764743 -1.9663567586102975 25.536442772374762 0.010915251130734549
1652456326.5753329 -2.556961770134455 25.502096153640807 0.026080304220253203
1652456326.9753344 -3.1444137097855336 25.50818546915164 0.035578075104524653
1652456326.9753344 -3.1444137097855336 25.50818546915164 0.035578075104524653
1652456327.3753712 -3.7449465849686074 25.54731147367704 0.05188662748349082
1652456328.175358 -4.914078369769575 25.741064380705833 0.05655787449775662
1652456328.5755067 -5.474031898432154 25.90156884585397 0.05771299798859103
1652456328.9754612 -6.031889021297953 26.109481576731334 0.06410687569953089
1652456329.3755105 -6.576998235182511 26.358327237308316 0.07185272080333904
1652456329.775748 -7.091484244809628 26.65326810587917 0.0700187178343118
1652456330.1756976 -7.559904354654837 27.000903172707645 0.06863348986478085
1652456330.5781794 -7.994175492297503 27.373748129494697 0.06732982116065195
1652456330.9780607 -8.42602728133791 27.758539028961536 0.07138649453586449
1652456331.3779378 -8.838852685565687 28.154525794950995 0.08533629577230134
1652456331.7778172 -9.254189926883628 28.598333366571765 0.10044198060796053
1652456331.7778172 -9.254189926883628 28.598333366571765 0.10044198060796053
1652456332.1765804 -9.666557606605563 29.060580556753933 0.11573417856043738
1652456332.5753043 -10.048853657833844 29.522692987818502 0.10670647150123441
1652456333.3788834 -10.789712452570592 30.506709578103344 0.10102932169187287
1652456334.178872 -11.407709011116895 31.52020116127367 0.0680570630818998
1652456334.5776958 -11.695373352428335 32.018250411824205 0.05550949287007867
1652456334.978944 -11.970636829485434 32.51953655540148 0.05187785605973699
1652456335.376384 -12.248379623849534 33.03833173799339 0.061019788017011634
1652456335.7763612 -12.51779321268641 33.57126018836771 0.0766800356232693
1652456336.1750631 -12.788533382873998 34.09344388519848 0.07625517543581156
1652456336.5749435 -13.043875678312096 34.62060889252913 0.07917475321933265
1652456336.9773157 -13.26648404302029 35.12175857357567 0.08365843531404038
1652456337.3759363 -13.43341986062243 35.677615573768435 0.0857156226303376
1652456337.7758093 -13.584196895413982 36.24346857268197 0.09022046610286533
1652456338.5758135 -13.786122377437312 37.418980017977155 0.08596862191551868
1652456338.5758135 -13.786122377437312 37.418980017977155 0.08596862191551868
1652456338.976008 -13.867234629230287 38.02567903632052 0.08439254873774127
1652456339.37626 -13.941038278725156 38.61161919635119 0.08084291449823028
1652456339.7751324 -13.992962391277823 39.19783386950595 0.0742485227248666
1652456340.1763735 -14.022827527060855 39.797422158254804 0.07320782978677365
1652456340.9751897 -14.031840293924741 40.98363355287961 0.07150437363946133
1652456341.7752097 -13.990492111289132 42.19678349568268 0.0693953345650592
1652456342.175202 -13.981019943164965 42.83888974441801 0.07383543329022657
1652456342.5776815 -13.958188993591307 43.32751910649155 0.0571249972660241
1652456342.9763591 -13.860834166792074 43.82340677603263 0.030203613641488047
1652456343.3750718 -13.66294226749584 44.41140201904671 0.05950778304977994
1652456343.7763743 -13.461766931205032 44.9913237904013 0.08117728766461613
1652456343.7763743 -13.461766931205032 44.9913237904013 0.08117728766461613
1652456344.1751406 -13.242912719125986 45.54463114109271 0.06757129971218107
1652456344.5763917 -13.011618376369007 46.097834929021246 0.07142572803900493
1652456344.9763916 -12.769816498177907 46.63171704450413 0.06607178006751224
1652456345.37641 -12.5562808506713 47.18261156797673 0.06216836855049551
1652456345.7775888 -12.357813648407085 47.73998942466863 0.05777004383400397
1652456346.1763735 -12.184748661063168 48.30432594358143 0.05098549189300233
1652456346.9764729 -11.93596854968822 49.4221112934307 0.0406057230654393
1652456347.7764785 -11.811225192059627 50.57663891106499 0.024901940520270838
1652456348.1764874 -11.796546640981468 51.16877395558148 0.018123375815169762
1652456348.57646 -11.773856900654422 51.77226903703985 0.01007350418739833
1652456348.9764664 -11.766947903538803 52.348211327463105 0.0032561150547557594
1652456349.3764842 -11.7846835779007 52.835139832488665 -0.004643494608463139
1652456349.7764513 -11.727918442805787 53.34163129768932 -0.008529648616067476
1652456350.176436 -11.60635802075295 53.92187174615473 -0.005150427482786213
1652456350.5763535 -11.448513907460342 54.50284594477054 -0.0009607139437772805
1652456350.9763741 -11.292232585227548 55.08171635134361 -0.003080834574416491
1652456350.9763741 -11.292232585227548 55.08171635134361 -0.003080834574416491
1652456351.776471 -10.934967780733132 56.261771348795314 -0.008349140760479656
1652456352.176482 -10.764990223672907 56.83600889150131 -0.019709443934321613
1652456352.5767336 -10.602381227343905 57.42779831680273 -0.02863407791623529
1652456352.9766986 -10.46780054134614 58.01285546889709 -0.03843906836326649
1652456353.376697 -10.358828034287384 58.5790760138475 -0.052949345265938697
1652456353.7758808 -10.279147885436473 59.1440743054807 -0.06168454653022032
1652456354.1771183 -10.225668537150455 59.71471422992885 -0.06307044097645126
1652456354.5758462 -10.207360431230352 60.30754656944991 -0.06017040363990628
1652456354.9770749 -10.220459649509607 60.891991560035066 -0.05498840656504772
1652456355.377075 -10.2867532874028 61.48546282220623 -0.05268731311325936
1652456355.7762477 -10.398789191085811 62.081395898310795 -0.04429145346131408
1652456356.1763887 -10.510798040975786 62.6579576505442 -0.04487888644496474
1652456356.5763977 -10.634703871849538 63.230483119446774 -0.04658203571137309
1652456356.9764159 -10.751626443300168 63.82645016258174 -0.041664212801125866
1652456357.3763878 -10.845603093189087 64.39994020784981 -0.033718355167734526
1652456357.7763684 -10.909502357502063 64.93347907956978 -0.029415306303861077
1652456358.1763678 -10.929351487836819 65.47645978507421 -0.029875895696182597
1652456358.9750814 -10.808369486683972 66.61369702686548 -0.03692589302349858
1652456359.375154 -10.712833309647625 67.22835715591118 -0.03723057203992819
1652456359.7751184 -10.60031089536879 67.83258820958551 -0.03455367566682921
1652456360.1752503 -10.48036019703624 68.42711786706272 -0.04181067540805239
1652456360.5752296 -10.369364182154527 69.02340724633729 -0.050268143478988225
1652456360.9752688 -10.242710255368564 69.60474716009065 -0.05889513454183559
1652456361.3752387 -10.104509729974808 70.18436887311196 -0.06986342401558893
1652456361.7752342 -9.952316885694337 70.7745311121545 -0.07533084069736307
1652456362.1752317 -9.802043515228434 71.3485721134389 -0.08291650551475749
1652456362.1752317 -9.802043515228434 71.3485721134389 -0.08291650551475749
1652456362.975287 -9.465646356876224 72.5177855386983 -0.1000998430567916
1652456363.776464 -9.073873468194193 73.68115447021704 -0.12760697065829335
1652456364.176498 -8.879500332725488 74.25859500161079 -0.14415006273414777
1652456364.576603 -8.711350799484137 74.82484904683518 -0.16290358490021822
1652456364.976695 -8.570030920810098 75.3873833523485 -0.18165986828216402
1652456365.3755941 -8.458992180584609 75.97399811911981 -0.19465602106353558
1652456365.7768126 -8.37731513973808 76.55994674970319 -0.19798073274919387
1652456366.1768167 -8.31370665555528 77.13534980742223 -0.20659162433987643
1652456366.5768092 -8.26561894768519 77.72518737439027 -0.2103007423738984
1652456366.9768395 -8.195128289256466 78.32072489465918 -0.21151889685327663
1652456366.9768395 -8.195128289256466 78.32072489465918 -0.21151889685327663
1652456367.377008 -8.146320045628777 78.95289504602407 -0.21162131434821102
1652456367.7757778 -8.092131875491795 79.52345036597826 -0.21935403371007833
1652456368.1758745 -8.045978261382345 80.10131663665206 -0.23774916985084948
1652456368.5758357 -7.9998650569569065 80.69009004312127 -0.23838228264069655
1652456368.9758215 -7.994421000333638 81.29837656191944 -0.23479982346435962
1652456369.774571 -7.979630972928668 82.43862460229329 -0.23632680699524122
1652456370.5758927 -7.813974675632011 83.52377908806501 -0.22784147986961434
1652456370.975895 -7.706595171104304 84.0560781521262 -0.21053449948884162
1652456371.3758783 -7.595196453819639 84.61266991823292 -0.16811386193491656
1652456371.3758783 -7.595196453819639 84.61266991823292 -0.16811386193491656
1652456371.7760985 -7.442214041721833 85.19431320379829 -0.11001149356045431
1652456372.1758287 -7.2519743553077305 85.77577638087526 -0.07797368458205178
1652456372.575826 -7.018659612844893 86.33834970905588 -0.06692356380749709
1652456372.9758542 -6.74388072937257 86.894294229401 -0.07398282250975702
1652456373.3758628 -6.4305349587588125 87.42877170243845 -0.07673490204807837
1652456373.7758613 -6.100279669656793 87.92351112996519 -0.09944854147486915
1652456374.175871 -5.728198956816456 88.37919784429076 -0.1125683203850158
1652456374.5758204 -5.322269143128331 88.81115675159643 -0.12377107854625391
1652456374.9758203 -4.886832679180145 89.21080260774377 -0.12833401881809064
1652456375.7758362 -3.9246774103763684 89.91263481883036 -0.13927380807957657
1652456376.1758614 -3.4218633795568394 90.20262853073271 -0.14683234139972862
1652456376.5772715 -2.9074324464849823 90.4471812767762 -0.15315837167112406
1652456376.9766977 -2.348896354238903 90.65696638704961 -0.14613600180888936
1652456377.3779528 -1.7864314674937134 90.79097266052369 -0.1439939743658119
1652456377.775474 -1.2089001885522919 90.8999509265961 -0.14495276691513825
1652456378.1767209 -0.6006044588038293 90.96478053242183 -0.13630003763508974
1652456378.5754871 0.0021499336541523917 91.02802720850404 -0.13116300914850648
1652456378.9767325 0.5977319508085799 91.08323768687825 -0.13515211398398974
1652456379.3767438 1.1776850359300113 91.15017074121096 -0.13850667824938628
1652456379.7767272 1.761868830712146 91.23798513817681 -0.14046981366492295
1652456380.1792085 2.3543823779167425 91.36717243522955 -0.1367336561133366
1652456380.5767004 2.9470794217713845 91.51721303357704 -0.1329293701311839
1652456380.976709 3.549673458239454 91.67392109006991 -0.1317213685018503
1652456381.3756528 4.1621671493364545 91.8129633107465 -0.13875613966338257
1652456382.1755788 5.312629332831463 92.00595379912158 -0.17264407880224003
1652456382.575616 5.887175535563792 92.0362761622298 -0.18752204188535676
1652456382.9755952 6.479844013468551 92.02501679333449 -0.18765822971976026
1652456383.3755863 7.036042194957325 91.99032306956168 -0.18632032452845954
1652456383.7756138 7.576590539127004 91.93509796232239 -0.1849682578938443
1652456384.1756384 8.166833963090887 91.84412754115328 -0.16698481817657285
1652456384.975604 9.288539624747024 91.53559294434697 -0.13536205269127827
1652456385.3755717 9.834460239416323 91.30552491651108 -0.12175879412500662
1652456385.7755704 10.378895059844709 91.02368485088053 -0.10182552472616963
1652456385.7755704 10.378895059844709 91.02368485088053 -0.10182552472616963
1652456386.175665 10.892710511116654 90.71410798716934 -0.10145687981054607
1652456386.5753376 11.369296011401673 90.3614628651182 -0.1051991380599514
1652456387.3752365 12.191859344229826 89.55730357294999 -0.10368338326600429
1652456387.7764657 12.535878793765328 89.12472820337652 -0.08841919253398323
1652456388.1764777 12.794571140743578 88.66997315057208 -0.08924262053453391
1652456388.5753186 12.985850828376272 88.17047771840583 -0.08301090959576757
1652456390.1772153 13.12887852422714 85.77273510802785 -0.13280432195856384
1652456390.5772786 13.092702726571808 85.17353965004668 -0.12330995316011795
1652456390.9772642 13.057068655550566 84.54485228380523 -0.11954551137377128
1652456391.377241 13.032654104876514 83.93623302346086 -0.119617484563379
1652456392.5769494 13.1236399492727 82.09353961397908 -0.17715854302449147
1652456392.976946 13.21978474927711 81.48147490002549 -0.19233795022886357
1652456393.3758607 13.313270565790454 80.82965993331592 -0.21086434501158768
1652456394.1758451 13.479544766742492 79.69763768516592 -0.29082440563529466
1652456394.5760005 13.562073779677775 79.15639648796221 -0.2994970761244263
1652456394.9748375 13.64178491319133 78.6463129811517 -0.29650137920392083
1652456396.9754264 13.716078292001896 75.69690041543903 -0.202671084370391
1652456397.3765752 13.641234680437982 75.09371877606564 -0.190617036304691
1652456397.7767026 13.544892489519476 74.51581271664037 -0.19633710567343943
1652456398.1754637 13.411543391802155 73.95338462995228 -0.20156853598854518
1652456398.5754373 13.169820769768343 73.41089882841132 -0.2001644561210959
1652456400.1763728 12.12084733690979 71.45772427159449 -0.1619224969567417
1652456400.5752573 11.912188003365735 71.03301459683995 -0.14878280328064342
1652456400.9765012 11.722075955438587 70.60216498040543 -0.1385984108105489
1652456401.7752013 11.44218776708707 69.85066519867898 -0.13402695201720038
1652456402.1744735 11.299848920859922 69.52480839778956 -0.12688293199049078
1652456402.5756998 11.430720873481594 68.57140171112569 -0.12131920055392847
1652456402.9769573 11.472789336272438 68.20974892051895 -0.13280293858989295
1652456403.3757179 11.57036983308512 67.61349228579857 -0.12226659914229898
1652456403.7757068 11.707739814614524 67.03163841042588 -0.11581860816692507
1652456404.175841 11.904247581698574 66.47672587591772 -0.10386183403766946
1652456404.5759525 12.136237278850079 65.8917074883505 -0.09137064012992119
1652456404.9759426 12.382511101311778 65.3237314962984 -0.08098948911416554
1652456405.7758281 12.910396137785671 64.21733358250161 -0.08102890561052833
1652456406.1758757 13.187759988513374 63.67334771481115 -0.08561964415388368
1652456406.5758681 13.478526067165568 63.192749489165784 -0.09179468677804375
1652456408.1756856 14.17580680100155 61.37526818406056 -0.10046544818326425
1652456410.1764178 14.140134731460442 58.472795230808245 -0.12158476643865546
1652456411.375083 13.790898570191832 56.72204665801789 -0.1307473278554211
1652456411.7763672 13.655792175605054 56.140453180303666 -0.13170056818269105
1652456412.1763513 13.516215466580608 55.57194202451629 -0.14203109980721224
1652456412.5751135 13.368474874454822 54.994902923796346 -0.1369767528731921
1652456412.9763858 13.230504773998366 54.39332686885549 -0.13502506441763024
1652456413.376414 13.128205756033722 53.80272396638608 -0.13083316559502034
1652456415.7786002 12.717735985583701 49.30103190642296 -0.08998529264963528
1652456416.1774378 12.714361734927017 48.70330216800512 -0.084975748253039
1652456416.9781792 13.008032601796433 48.40230991084596 -0.09280926131746908
1652456417.3781214 12.978523148362502 48.09806953375296 -0.10529976255437395
1652456417.77934 12.881144036184612 47.59696920280549 -0.13065910948437176
1652456418.1768532 12.713892218488756 47.06636213331934 -0.13978939101463328
1652456418.5795453 12.541217614553084 46.55162601341617 -0.13212569313888312
1652456419.3769493 12.007666356865506 45.47432785207597 -0.08242223533308762
1652456419.7769632 11.744690726570948 44.931680767640756 -0.08284864986360035
1652456420.1770163 11.423462375893571 44.40675653989908 -0.07943756704659888
1652456420.576945 11.111841549915379 43.91439707590858 -0.09270934388973123
1652456420.97712 10.808133347612937 43.42354650284177 -0.10473349047639269
1652456421.3771315 10.529810553342266 42.899530248260305 -0.08328958336960135
1652456421.7771516 10.311848086815246 42.48130618393775 -0.07878719414074609
1652456422.1771119 10.154371873270438 42.09137014284263 -0.08574628202726059
1652456422.5770702 10.031019489973193 41.58335649255852 -0.07933960888324665
1652456422.9806957 9.898767303506855 41.00222439085516 -0.06248775697566222
1652456422.9806957 9.898767303506855 41.00222439085516 -0.06248775697566222
1652456423.379505 9.78336130157474 40.400176866569 -0.046215634502565384
1652456423.7794814 9.675889285648577 39.8044719743943 -0.03923183153070853
1652456424.1782331 9.58948216028568 39.20816373244921 -0.03911454492197114
1652456424.5794759 9.501049228306929 38.60769909613498 -0.04145598489047303
1652456425.3782372 9.242326894375715 37.469156730076875 -0.03807087708711532
1652456425.778229 9.029374235571979 36.8973265903029 -0.036278317484811196
1652456426.1805685 8.831271810705864 36.32825630282266 -0.039716010695981185
1652456426.5804377 8.624418440061937 35.77522669631451 -0.05018320442641949
1652456426.9791324 8.410286604599918 35.212159769620335 -0.05108416849607089
1652456427.3791165 8.210592454908202 34.67246499829964 -0.05200270569798732
1652456427.7778597 8.003494276308732 34.133133252940226 -0.05101113826901593
1652456427.7778597 8.003494276308732 34.133133252940226 -0.05101113826901593
1652456428.575718 7.544662543430341 33.02172575546009 -0.02447074804373528
1652456428.978198 7.319569876985028 32.46168845220783 -0.017729916369070287
1652456429.3782475 7.128844041939502 31.91995146904636 -0.012236831698760053
1652456430.1782744 6.825911383486588 30.771378433874823 0.01585505124066
1652456431.779111 6.688745535184868 28.365600375719016 0.01836476989519259
1652456432.1790512 6.777632364209499 27.805046545105327 0.0009026952854659931
1652456432.5790472 6.939816044656151 27.24403480775142 0.006922604464443316
1652456432.5790472 6.939816044656151 27.24403480775142 0.006922604464443316
1652456432.9793222 7.167224584954582 26.708723839200466 0.012676990680712596
1652456433.3797147 7.490495288406045 26.205066333351873 0.01904379977707399
1652456433.7784474 7.895758448241914 25.750504062130567 0.017928789171407944
1652456434.1796973 8.345908744128735 25.344471974046577 0.009798292824306054
1652456434.579711 8.787362833744435 24.953640662662842 0.002356656934553114
1652456434.9796965 9.161728066371225 24.667767661251695 0.0009538945557667766
1652456435.3784537 9.388464668779793 24.483549788934475 -0.0002721188504883898
1652456435.7783165 9.52475044608747 24.377807363163335 -0.005345373078093074
1652456436.1781793 9.727127694146652 24.08402650785939 -0.015411748303797101
1652456436.5794902 10.024140226258439 23.682844289967278 0.0035478035899563776
1652456436.9782405 10.292456340001717 23.450301969682307 -0.0027333077568442166
1652456437.3783827 10.415951597911828 23.124317739221325 -0.016555329867914748
1652456437.3783827 10.415951597911828 23.124317739221325 -0.016555329867914748
1652456437.777869 10.492468823034223 22.748762876474856 -0.011746233929539829
1652456438.5790718 10.210806290271432 21.699981360944946 -0.007032533886117798
1652456438.9765706 9.960952666941655 21.257392702034885 -0.003238774906596298
1652456439.3765936 9.592605828122764 20.840975834575403 0.004539662912947384
1652456439.7778695 9.236321240747685 20.560949190729378 0.015485995141408415
1652456441.7784297 6.575427121177441 19.172883763713536 0.022546942513149593
1652456442.1782994 6.08544318870068 18.990145078367558 0.02749164526169323
1652456442.5782175 5.59942508527689 18.811124101692243 0.02559739046547127
1652456442.5782175 5.59942508527689 18.811124101692243 0.02559739046547127
1652456442.9785254 5.112232465266752 18.62409655152399 0.029692248326132598
1652456443.378433 4.635040124206585 18.443557376646655 0.04020709988306187
1652456446.1773248 1.5229577487261317 16.257401147077044 0.06975407116309235
1652456446.5773537 1.1688948208002277 15.775953841884576 0.0676754803998113
1652456446.977391 0.8187531454232424 15.28334423409148 0.06676401290217437
1652456447.3773527 0.4765104837219063 14.773793456092921 0.07075808455520627
1652456447.3773527 0.4765104837219063 14.773793456092921 0.07075808455520627
1652456447.7774136 0.14817653509949125 14.291818257757585 0.06616500868072855
1652456448.177719 -0.17277985629513637 13.793830218272076 0.06733062209012713
1652456448.5766184 -0.4893051803104598 13.283359494920399 0.08020682353435016
1652456448.9778764 -0.8025477446978844 12.75637146679124 0.09254464349842531
1652456449.3766224 -1.1045716490843853 12.228910907434019 0.0995561267416995
1652456449.7778203 -1.3994679423541765 11.70827806032246 0.09662158415310418
1652456450.1778233 -1.6826180027059214 11.176005604730559 0.09837247723503875
1652456450.5767052 -1.9705003541396122 10.625097479974784 0.10370808462552511
1652456450.9767423 -2.2546317873570008 10.061996848401854 0.10400412586713456
1652456451.3767407 -2.51299672568224 9.516495261837303 0.09249433347683012
1652456451.776703 -2.76084796271064 8.979781733645892 0.07421608352272424
1652456452.1768596 -2.9843400613181554 8.462396658643016 0.0684825897963961
1652456464.177206 -12.246919206040298 15.907381646128856 0.13870066169453843
1652456464.5771987 -12.455778027542033 16.454083109118645 0.13109422966076592
1652456464.9771967 -12.691924985248143 16.96428697203842 0.12163352510734773
1652456465.3773723 -12.934097599137115 17.480013257568917 0.12183771381498626
1652456465.777335 -13.186487563796177 18.032922929904753 0.1422844077609628
1652456466.5761082 -13.740390383510638 19.07203558330892 0.16504779559955507
1652456466.9773147 -13.952178007383461 19.578518854546086 0.16024405841309583
1652456467.3772097 -14.11850782574656 20.158806910782523 0.15850262914971083
1652456467.3772097 -14.11850782574656 20.158806910782523 0.15850262914971083
1652456467.7774124 -14.246869617806997 20.762746884561462 0.16141574017282492
1652456468.1777048 -14.35106383325727 21.350328406376 0.16039201792131247
1652456468.577687 -14.439274432184039 21.92694584697119 0.1540344962798466
1652456468.9788656 -14.496554447096697 22.523103405004232 0.15318459751412883
1652456469.3801556 -14.53393236119003 23.125906146783784 0.1573346461767585
1652456469.7788184 -14.541899566881332 23.719225675179484 0.15982155017370195
1652456470.18011 -14.518055121446846 24.31414223960995 0.16001674827209117
1652456470.5788136 -14.469338058890749 24.920798528759523 0.15873927450919265
1652456470.9788325 -14.379481807409856 25.52085642005133 0.1554058760956417
1652456471.3775663 -14.266418175498949 26.096394657464316 0.14083887923653568
1652456471.7774315 -14.134316262358006 26.672662768722304 0.1300840526647549
1652456472.179812 -13.982870257227694 27.24154571856744 0.12953870332638687
1652456472.5798364 -13.813988409946457 27.818515148873278 0.12997058546008078
1652456472.5798364 -13.813988409946457 27.818515148873278 0.12997058546008078
1652456472.9785893 -13.625823631484176 28.390524456352132 0.12984330943131328
1652456473.3785703 -13.423675100270401 28.936051659778723 0.11773635795470658
1652456473.7786174 -13.207578632043369 29.49542808527058 0.11919044659862205
1652456474.1785986 -12.965936297124676 30.05995073020742 0.12032006901192069
1652456474.9773545 -12.450329416527202 31.163057540175217 0.09586623710162209
1652456475.3773656 -12.18795922709216 31.72489733780848 0.08051322824766644
1652456475.7773604 -11.958095619803977 32.2522556940349 0.06078152844881396
1652456476.17734 -11.73345613603669 32.78244939612935 0.0471544130376193
1652456476.577332 -11.472174233917668 33.35158312682001 0.05966745188345074
1652456476.9773588 -11.242452594986482 33.897385577256834 0.05685208479163445
1652456477.3774674 -11.059668810165633 34.444742246287916 0.04203653612772862
1652456477.3774674 -11.059668810165633 34.444742246287916 0.04203653612772862
1652456478.5773125 -10.723544476617425 36.14907871021961 0.04128044078448656
1652456478.9771914 -10.708864944321235 36.748357772771634 0.044647736194912746
1652456479.3770764 -10.725976404860265 37.33955293237408 0.05369437921518633
1652456479.3770764 -10.725976404860265 37.33955293237408 0.05369437921518633
1652456480.1778517 -10.909474773774887 38.50376581816495 0.05101187985738409
1652456480.5790832 -11.091314476764941 39.056415079608655 0.05000120554362392
1652456480.9778767 -11.30131933085633 39.6234129963002 0.06230748569917227
1652456481.377863 -11.498313735642915 40.13393400727363 0.07320885883226824
1652456481.777906 -11.65158688273317 40.624755104748715 0.0646017056582619
1652456482.1790974 -11.795273480131488 41.11310250499049 0.0752184498911792
1652456482.5778186 -11.89561608828253 41.572863781106236 0.07401215701966163
1652456482.9778016 -11.950529459900991 42.09966360437042 0.062488965520394735
1652456483.37659 -11.95253799515468 42.755837179904354 0.09168237003651786
1652456483.7791135 -11.897916380164984 43.30991072561456 0.07911410964944332
1652456484.1778283 -11.817918569398097 43.84381219771406 0.04248446278161222
1652456484.1778283 -11.817918569398097 43.84381219771406 0.04248446278161222
1652456484.578012 -11.631433013071883 44.47295006916954 0.08987022273149703
1652456484.978107 -11.41233713015936 45.0664173444141 0.09443351675972397
1652456485.378105 -11.171522762720898 45.61603925198658 0.06539914676530251
1652456485.7780995 -10.929612860132515 46.15358829288043 0.044055443349449996
1652456486.178066 -10.688291873840996 46.677338610446725 0.03209795687701178
1652456486.5779476 -10.408455218975313 47.22208380446336 0.03277124794308206
1652456487.377984 -9.827263116785605 48.28339922076812 0.022763394604420062
1652456487.7779267 -9.544419705222808 48.807405497980234 0.017417577088354397
1652456488.1778271 -9.287557964231386 49.284294557463056 0.00865235000045772
1652456488.5778074 -8.98230452440892 49.682806106669666 -0.0030159712377772485
1652456488.979073 -8.546475546723816 50.04203163634966 -0.012848670402604345
1652456488.979073 -8.546475546723816 50.04203163634966 -0.012848670402604345
1652456489.3793092 -8.065666131831428 50.38164821759688 -0.021111140946944718
1652456490.178248 -7.084183823208754 50.907309071733756 -0.03268208832262248
1652456490.577015 -6.552741601328016 51.06796424185816 -0.03793623193129125
1652456490.978212 -5.972400218746717 51.142303891917585 -0.036438737750491224
1652456491.3781986 -5.362482075959168 51.119245778158074 -0.03117542755185604
1652456491.7782488 -4.755680479790499 51.05590927713749 -0.029712289231052458
1652456492.1770866 -4.161164251808209 50.95864420044194 -0.03512206529201295
1652456492.9770954 -3.0013608248207824 50.700978754330976 -0.058216962102783876
1652456493.7771363 -1.875853753515571 50.286574313591714 -0.07366728371058284
1652456494.5783494 -0.8043957898141585 49.64608180673465 -0.115839882331919
1652456494.9783266 -0.4452968443794596 49.2648295240505 -0.16169213784823377
1652456495.7781909 0.20086948049876696 48.354500399260715 -0.12727058012179737
1652456495.7781909 0.20086948049876696 48.354500399260715 -0.12727058012179737
1652456496.1781461 0.4695879496370168 47.84421270728697 -0.10858639052877278
1652456496.5772629 0.6948889298362175 47.37242428247273 -0.08007636509209043
1652456496.9785945 0.81339659618234 47.08989905723321 -0.07567719264011474
1652456498.1785936 1.7162470160181158 45.89738322172521 -0.06524730191143369
1652456498.1785936 1.7162470160181158 45.89738322172521 -0.06524730191143369
1652456498.5773623 2.0595400411060005 45.48570667329446 -0.05938744005425095
1652456498.9785652 2.346451826289634 45.15115025711252 -0.041925788062416314
1652456499.377202 2.7699459460704077 44.871732043312235 -0.03631161618062595
1652456499.7772095 3.2945793340665084 44.571124733318115 -0.03602667222687933
1652456500.5783308 4.397944136249084 44.091727855160286 -0.055037873019379624
1652456500.9783132 4.972310479007945 43.887116725253435 -0.055188716349901745
1652456501.3782725 5.557641296868606 43.721388695654824 -0.05281133913582947
1652456502.1782384 6.777836410324998 43.38798833251157 -0.05866835452150754
1652456502.578246 7.304016592795463 43.252045137007066 -0.09303955178179141
1652456502.9782412 7.831495145128333 43.08520381522689 -0.08984644271940206
1652456502.9782412 7.831495145128333 43.08520381522689 -0.08984644271940206
1652456503.3782673 8.286089206367688 42.90819943560565 -0.08707043958467231
1652456503.778236 8.69364906632726 42.7131509952261 -0.10335798114366757
1652456504.178249 9.044089800175705 42.51229515705613 -0.11157785271955056
1652456504.5782473 9.385386488130354 42.32023037860317 -0.10827337664440279
1652456504.9782462 9.685850978056997 42.13254206653632 -0.08625461827003505
1652456505.3782542 9.951585666758813 41.8496262709986 -0.07956449531717807
1652456505.778327 10.192300239143751 41.344623733449694 -0.0609302389290029
1652456506.1783288 10.424160840621898 40.790796092647554 -0.04561745841600434
1652456506.578336 10.60504538448075 40.242481656687644 -0.03262762496118188
1652456508.5785604 10.475505690472854 37.26590919316371 -0.03818410778767051
1652456508.9784384 10.33322302774108 36.6711836267757 -0.034943956456072456
1652456509.3783388 10.114978419160959 36.108383540216096 -0.033609812788495064
1652456509.7783072 9.869800618529762 35.56230346236262 -0.04494159971464934
1652456509.7783072 9.869800618529762 35.56230346236262 -0.04494159971464934
1652456510.5783436 9.334234008707295 34.50645257191517 -0.0509052454579077
1652456510.9783819 9.09191051693783 33.97462427511181 -0.05126152562141362
1652456511.3783793 8.864142977309282 33.42967827151244 -0.04279823577266656
1652456511.7783546 8.664522388007029 32.886990000213125 -0.034024972311010315
1652456512.1783688 8.49796566962289 32.33051099294191 -0.023038454307238165
1652456516.1803777 8.02554195205619 26.53816551173368 0.009102439609892377
1652456516.5804658 7.902088092263078 25.941863057305557 0.009082261768167676
1652456516.9804955 7.751149386712822 25.3810762026671 0.005245782629778151
1652456517.379238 7.5796146435451135 24.82245664467729 0.0025008623597208013
1652456517.7792382 7.4443267533658215 24.298193122549584 0.020000094035139304
1652456518.1791053 7.351324212548398 23.880867846732336 0.03578844930876146
1652456518.98037 7.231284144823007 22.50924382190228 0.036163948091081144
1652456519.3778527 7.26319624747876 21.989204035633257 0.02621662088279514
1652456519.7766075 7.382208712954899 21.411237624640666 0.018046098339721095
1652456519.7766075 7.382208712954899 21.411237624640666 0.018046098339721095
1652456520.576596 7.64210813460495 20.336793214648544 0.017458243662561712
1652456521.3766158 7.73592862907973 19.343145507934924 0.010413386508485
1652456522.9776094 7.33179098277556 17.234778034258614 0.02173649764616381
1652456523.3775818 7.179352056536793 16.678977916074594 0.018412888384025716
1652456523.7763765 6.9363931290180805 16.142753711872455 0.018611818320412643
1652456524.1775796 6.696104670429393 15.610552481826367 0.025752701917094167
1652456524.5776076 6.483150678015602 15.12031403004936 0.034014390089874114
1652456524.5776076 6.483150678015602 15.12031403004936 0.034014390089874114
1652456524.9764173 6.168694355954796 14.667179279309078 0.028096981002948218
1652456525.3775995 5.756294057662452 14.22004016238148 0.025088818340794572
1652456525.7788377 5.441640743765097 13.923749741533555 0.021218533365711112
1652456538.1798244 -6.962730070771602 9.324475246478208 0.11491866086741742
1652456539.3798351 -6.977316030752937 9.331831414925498 0.10891717762288028
1652456539.3798351 -6.977316030752937 9.331831414925498 0.10891717762288028
1652456539.778619 -6.977529671196088 9.3321698979981 0.10905113693814206
1652456540.1785865 -6.9775102440798396 9.332079977002646 0.10900175018874447
1652456540.5786266 -6.977414697636262 9.331901220748422 0.10894296768935272
1652456540.9786031 -6.97753906621735 9.332236976407161 0.10883191482761279
1652456541.778574 -6.977532603992717 9.332205536890823 0.10874100466830247
1652456542.1787515 -6.9775910534556 9.332257780039669 0.10872391405407103
1652456542.578857 -6.9776552607386595 9.332467915035176 0.10867805783244361
1652456542.9788516 -6.977813584840117 9.332888365631765 0.10863379243262569
1652456543.378848 -6.977950049076506 9.333264662075141 0.1086416779568612
1652456543.7788262 -6.977796651025798 9.333012826625291 0.108641582983871
1652456544.178806 -6.977876379310829 9.333378906671301 0.10865842295174505
1652456544.578829 -6.977793540756917 9.333186256984874 0.10868568503030474
1652456544.578829 -6.977793540756917 9.333186256984874 0.10868568503030474
1652456544.9788322 -6.977506174469648 9.332397090388664 0.10870746944548404
1652456545.378822 -6.977436583337741 9.332176815065846 0.10867725874044548
1652456545.778863 -6.9774418746541516 9.332195663852179 0.10864947476736617
1652456546.178896 -6.9773782901494545 9.331994426521225 0.10861509699495375
1652456546.578856 -6.977452337371505 9.332157969425445 0.10857037373986841
1652456546.9788718 -6.977438914391584 9.331980630251206 0.10855007502303232
1652456547.3788278 -6.977428592526833 9.33187637331623 0.10849387202317565
1652456547.7788165 -6.977459168504193 9.33200435020091 0.1085169051103543
1652456548.1788595 -6.977664309785726 9.33240803536802 0.10853247663358245
1652456548.5788622 -6.977564355226527 9.332102927046728 0.10849871486158127
1652456548.9788587 -6.977595668336515 9.332272039396821 0.10844916811128394
1652456549.3788784 -6.977540579302455 9.332046477413481 0.1084327716193286
1652456549.3788784 -6.977540579302455 9.332046477413481 0.1084327716193286
1652456549.7789474 -6.977608633337092 9.332329395869408 0.10835040367321017
1652456550.1789796 -6.977601476313234 9.33239644083938 0.10835230446787583
1652456550.57783 -6.977621991383156 9.33238947234151 0.10839773534861985
1652456550.979084 -6.977679001435284 9.332625658043186 0.10844717120841732
1652456551.3790746 -6.977725744596771 9.33276949899842 0.10850266212563656
1652456551.7804823 -6.977639547218564 9.332686313253348 0.10858433081850491
1652456552.179247 -6.977735473448212 9.332960748806238 0.10861384305110852
1652456552.5792398 -6.974356498211346 9.322999132511727 0.1059381587353688
1652456552.9779918 -6.506986713931598 8.877022862403571 0.0969993981353465
1652456553.7792437 -6.129195871076538 8.485107296201083 0.10969280837142201
1652456554.1792312 -6.110520155330291 8.547434060500958 0.09533459270582179
1652456554.5805805 -6.057490576734377 8.653063548572314 0.09452318876050925
1652456559.3775403 -7.37614858875915 7.75300494102678 0.10660931122289424
1652456559.7773807 -7.848081324677864 8.15665657154849 0.11934538147640944
1652456560.1773398 -8.166967259990608 8.463591405343815 0.118723568582595
1652456560.578572 -8.53096702552667 8.969688512994479 0.11386341791629581
1652456561.3798764 -9.142660634607896 9.875536827034844 0.14084344960669096
1652456561.3798764 -9.142660634607896 9.875536827034844 0.14084344960669096
1652456561.7801235 -9.419261673504074 10.159948292977807 0.15476356603975228
1652456562.1788738 -9.56844975704051 10.549257984261487 0.14815382669240842
1652456562.5788412 -9.39116608110594 11.075831217416951 0.1344008360872707
1652456562.9775898 -9.161864389110724 11.61956532364114 0.13559999789017607
1652456563.3775887 -8.83765266795925 12.12388809142763 0.1398550445118122
1652456563.7775817 -8.468975802916464 12.603466031596204 0.14518294690629574
1652456564.5789587 -7.68269740137238 13.413421527428303 0.14045900578395465
1652456564.9777973 -7.252340230905379 13.790919555671042 0.13972977038205897
1652456565.377863 -6.850812284575633 14.120039377801536 0.13002030837489967
1652456565.7778614 -6.446044036550099 14.374554456689014 0.11984401506374029
1652456566.176606 -6.185608226718319 14.55512824801761 0.10094719633486263
1652456566.577818 -5.690598601423642 14.746704730253873 0.1027547413352348
1652456566.577818 -5.690598601423642 14.746704730253873 0.1027547413352348
1652456566.9765859 -5.160415039710462 14.905508030124412 0.08620771972924546
1652456567.37656 -4.581574895426528 15.05509372752989 0.08942319234696627
1652456567.7776961 -3.974078263968557 15.189321999686594 0.10857263632428382
1652456568.1776936 -3.394824258254774 15.326971395373835 0.10228434499426067
1652456568.5776944 -2.7890901373637966 15.452429263822683 0.09459296821505822
1652456568.9776866 -2.2134759108420674 15.57829621911912 0.0902591924485251
1652456569.3775666 -1.6215187045293415 15.7170533442423 0.07685815258145395
1652456569.77748 -1.032233578829361 15.871857342742823 0.07992081782782612
1652456570.5774775 0.05548147984469587 16.251332354406134 0.06263947204247738
1652456570.9775765 0.5885923474330106 16.490736611991125 0.0670620335906204
1652456571.3776011 1.1249776238092881 16.78596684828485 0.08038910306114377
1652456571.3776011 1.1249776238092881 16.78596684828485 0.08038910306114377
1652456571.7777748 1.6283860129377654 17.113195195169418 0.08057481296293201
1652456572.1775846 2.104942940208348 17.478217660633035 0.07021469025732685
1652456572.5775623 2.5742462028618487 17.86222526878279 0.0677454034120677
1652456572.9775548 2.9974223357344965 18.271955146075786 0.05104940359109633
1652456573.3776073 3.3762766002770483 18.746358991972983 0.04545787284205827
1652456573.7776127 3.726155238860711 19.25047383160892 0.04679235181885405
1652456574.176386 4.045519137835951 19.748719168478125 0.03783816056298739
1652456574.5764422 4.337894386151763 20.258551535708566 0.026515541883087634
1652456574.9777112 4.5884598217033385 20.767669579080298 0.021042462750143764
1652456575.3776855 4.8501702694595075 21.206341509954363 0.02739753996019384
1652456575.7763581 5.122648944537417 21.60329942644648 0.0383009758583841
1652456576.577567 5.88262073106247 22.31726434236328 0.03470160901386732
1652456576.977499 6.476515084634091 22.755988178222694 0.018594455767784512
1652456577.3787615 6.9392391181709066 23.07461279498345 0.027196204287197767
1652456577.7775733 7.4618112741847895 23.39258311345151 0.026213465172188477
1652456578.1775823 7.974103279384149 23.680093688837392 0.019244681664142838
1652456578.5788214 8.50928443221277 23.895320117079486 0.0019825583292921167
1652456578.9775696 9.10929244860958 24.084461730832757 0.007218851899835788
1652456579.377629 9.66713907758962 24.24753554350321 -0.0031807511658551446
1652456579.777586 10.219387131224693 24.38758435132323 -0.025247766788841663
1652456580.1775856 10.82125358374962 24.520468507923564 -0.013159648827563597
1652456580.5788202 11.422431001227391 24.637663772526864 -0.013204392909071938
1652456580.9788053 12.01690154470132 24.72153051470486 -0.030594104158281343
1652456581.3788266 12.609499847631811 24.79624891953879 -0.03690885366509439
1652456581.3788266 12.609499847631811 24.79624891953879 -0.03690885366509439
1652456582.1788485 13.547838985303022 25.02428378874575 -0.06585876636950388
1652456582.9789157 14.576644455272838 25.523004985557254 -0.07409392204939219
1652456583.3789968 15.017587837047003 25.80395384874836 -0.07007635859459743
1652456583.7777262 15.399530020968886 26.159353327357447 -0.06478160626259738
1652456584.177881 15.769756547246725 26.5987767928041 -0.03945408777347731
1652456584.5778685 16.067729169069537 27.066997543849308 -0.022122946477931615
1652456584.977859 16.305934601481994 27.579849791283088 -0.009726343777259283
1652456585.3778124 16.47445608559159 28.126586790257562 -0.016870650258917208
1652456585.777809 16.48930877410588 28.729793867276825 0.0004970874856026208
1652456586.1778233 16.448245502832286 29.221075863650967 0.008800162226953068
1652456586.1778233 16.448245502832286 29.221075863650967 0.008800162226953068
1652456586.5777044 16.491437070214737 29.709607218032797 0.005285332858869229
1652456586.978813 16.565123485588874 30.286595701439268 0.0006333350001472282
1652456587.37758 16.658240935631873 30.885337814105583 0.011716410569575786
1652456587.7776287 16.815515245605045 31.478105461003178 0.031412180454813476
1652456588.1775854 16.981698008804138 31.965135535143816 0.034754056680769196
1652456588.5775638 17.0742010696013 32.358015860515174 0.03783658273530105
1652456588.9774795 17.15825853022082 32.694215277817264 0.047673355418912766
1652456589.3776112 17.22538220571416 33.00649747107548 0.049281079850453546
1652456590.1775692 16.972090761437546 33.72738083745952 0.02672912321745108
1652456591.7783067 14.846368926763628 34.79698221503459 -0.04764293765845273
1652456592.1781962 14.25258987906285 34.9076537898216 -0.04621382504270205
1652456592.5783997 13.66644453109441 34.971774189997554 -0.04518338095849245
1652456592.9771495 13.069393409988098 34.95888527532377 -0.04680406144001331
1652456593.378357 12.475076337520257 34.89524081051449 -0.04493188242380047
1652456593.7783241 11.879473670769237 34.795042596604524 -0.04389137446435715
1652456594.1783228 11.271944644136799 34.698928404083354 -0.0413706464098309
1652456594.5783145 10.67771487845458 34.62614439162315 -0.04334411531271026
1652456594.9783587 10.082610355144269 34.59280296286666 -0.04733784903271632
1652456595.3771303 9.51482248039002 34.622719263804505 -0.05194085327022824
1652456595.7783687 8.907473937096977 34.64073219541338 -0.05489466924924691
1652456595.7783687 8.907473937096977 34.64073219541338 -0.05489466924924691
1652456596.578374 7.710757176098674 34.69040648153717 -0.053887482265237874
1652456596.9783552 7.104283636970319 34.72860748172313 -0.05075725386867436
1652456597.3783665 6.5215476032746835 34.783508133031134 -0.0444024511355085
1652456597.7783656 5.924413438282382 34.83588853102749 -0.04613817221602856
1652456598.178384 5.308526100788587 34.909411177564756 -0.03300697287074139
1652456598.5784469 4.739804600862385 34.9726054761163 -0.04372371407681547
1652456598.9784548 4.142034995705892 35.046874896664484 -0.04363022796086535
1652456599.3784611 3.5398315011936816 35.11597424472457 -0.03073579792946357
1652456599.7786117 2.9402937466408297 35.19280231990036 -0.033583373830633034
1652456600.1785812 2.3543650411723043 35.27422914903002 -0.035171048507169234
1652456600.5786266 1.780054102300916 35.35038905666141 -0.04104368093165184
1652456600.5786266 1.780054102300916 35.35038905666141 -0.04104368093165184
1652456601.3786016 0.6253457050811448 35.517377848445264 -0.028345800239030938
1652456601.7785928 0.01988334661174207 35.61687135323632 -0.01595230975062295
1652456602.1786058 -0.5951597776773703 35.71493405496559 0.0040413121609443325
1652456602.578604 -1.1466838608159904 35.80994835018344 -0.008840512402168765
1652456602.978573 -1.6977856392002266 35.915606473046545 -0.012954868940694753
1652456602.978573 -1.6977856392002266 35.915606473046545 -0.012954868940694753
1652456603.3785863 -2.279863140908791 36.01704459928798 0.012368001329590927
1652456603.7785728 -2.877518106018279 36.11981416304388 0.037718522569079094
1652456604.178573 -3.4998645150281575 36.23030815627832 0.05098464568041888
1652456604.5786328 -4.084696864278079 36.33876482484264 0.05014600802392705
1652456604.978622 -4.644585983960624 36.454281067297394 0.03214913733977448
1652456605.3786194 -5.237274376794726 36.57563689519486 0.04845017429558729
1652456605.7789865 -5.83919566432731 36.703574231248055 0.0597785757016816
1652456606.1789565 -6.4418182878526515 36.84352518767459 0.05938857917960144
1652456606.5776918 -7.02268110599471 36.9808007569079 0.05062939648443621
1652456607.3802617 -8.143013576010596 37.25158881300973 0.03155992864596868
1652456607.7814937 -8.729671704313771 37.390992268646784 0.047095094564391204
1652456607.7814937 -8.729671704313771 37.390992268646784 0.047095094564391204
1652456608.1814902 -9.325449363647264 37.54389635185112 0.06032441810661904
1652456608.578985 -9.900073690939378 37.68984885399085 0.05906059154449367
1652456608.9790177 -10.489416762823222 37.844445671784165 0.05500298642699625
1652456609.3791368 -11.017087264747046 37.96999456889988 0.05838920022764188
1652456609.7803652 -11.438519396930655 38.09563115342266 0.04246462408612478
1652456610.580394 -12.086986097338237 38.199708425478875 0.06912671826038636
1652456610.9803963 -12.3048026163715 38.21819825153385 0.06965198722549465
1652456611.380426 -12.550493205937444 38.437356425537054 0.06839707332702333
1652456611.7803621 -12.870177787069775 38.81766897159232 0.06889047800340348
1652456612.1790643 -13.145370584988601 39.3174974233902 0.07801009449676316
1652456612.5777407 -13.360911020934687 39.83074516665373 0.08767765134450384
1652456612.5777407 -13.360911020934687 39.83074516665373 0.08767765134450384
1652456612.9778922 -13.43806894776357 40.36115775037257 0.08947930380350216
1652456613.3791049 -13.341382048919437 40.905670640331934 0.08171652076505909
1652456613.7790737 -13.049443714834398 41.398674015240694 0.08073010367320216
1652456614.1791427 -12.638691466378406 41.83685830586223 0.0752716084608332
1652456614.5791633 -12.200913303119835 42.234798985514374 0.07616734494772126
1652456614.9778821 -11.722401820887862 42.58806849770444 0.07080456461206036
1652456615.3791394 -11.27797705554547 42.889605936839985 0.0774758400114382
1652456615.7790847 -10.863193090684016 43.18170040206464 0.062286496322744744
1652456616.1778195 -10.357390065331552 43.56479985776396 0.07706691837250185
1652456616.5791059 -9.855007299429587 43.95219253016698 0.07108380601703518
1652456616.9791217 -9.399426615341177 44.337260056899076 0.045486306459264214
1652456617.3791342 -8.931673866073222 44.72720805451942 0.03481612877072515
1652456617.7791598 -8.468384114211759 45.10547348961043 0.027561170519369627
1652456618.5778515 -7.566822314554468 45.87817893408102 0.008362050919439923
1652456618.979114 -7.1310906127692135 46.27499070419301 0.0025721378779389736
1652456619.3778198 -6.696107546559759 46.67407420149101 0.0031712442826187237
1652456619.7790694 -6.270457848945075 47.0760995708903 0.004343125602402076
1652456619.7790694 -6.270457848945075 47.0760995708903 0.004343125602402076
1652456620.5798528 -5.429150318176244 47.9507415104585 0.009124643679496891
1652456620.979828 -5.0419748148721375 48.40659129647915 0.004803719252360228
1652456622.5798237 -3.6521533898005174 50.40797133587955 -0.03285448688758247
1652456622.5798237 -3.6521533898005174 50.40797133587955 -0.03285448688758247
1652456622.9798193 -3.334386991583134 50.887710522862264 -0.051542289862534396
1652456623.3798158 -2.9345675570396565 51.32472854387454 -0.07609530159309791
1652456623.7798424 -2.4817804734628837 51.71791002422095 -0.11077655891766963
1652456624.1798491 -2.0304147412667284 52.12699088810072 -0.13403923604393203
1652456624.579838 -1.582829755271412 52.489076629714205 -0.15852260666572737
1652456624.9798512 -1.1042149813243576 52.81985447599248 -0.18289765463874536
1652456625.379856 -0.6481229041977414 53.166648713413466 -0.18799235868942338
1652456625.779843 -0.22133112368063834 53.5156592075457 -0.19905272878393004
1652456626.1798935 0.20209895510247833 53.834510079344426 -0.19503133688899116
1652456626.5798478 0.6407668201931997 54.116346426744514 -0.19332189170140257
1652456628.1796174 2.8727395979629513 55.17176157247116 -0.09585382358367878
1652456628.1796174 2.8727395979629513 55.17176157247116 -0.09585382358367878
1652456628.5797129 3.419160494737259 55.412727717025675 -0.10471480945223649
1652456628.9799428 3.975820033014415 55.64914623306939 -0.1114129124248312
1652456629.379936 4.546013244699942 55.88417741379534 -0.11413630473537778
1652456629.7799258 5.189839453813455 56.142900954435824 -0.11320551726259598
