1652496216.6102684 15.252000262810013 -83.99739399839925 0.09276813130872064
1652496217.4102569 15.958459462117808 -84.61807638712345 0.10898978201192715
1652496217.8102698 16.361529459713 -84.9545236580292 0.1223918273632305
1652496218.2102687 16.782404606405613 -85.28705001926592 0.1383896528589446
1652496218.61016 17.206796853141796 -85.63678046093095 0.15336518467944577
1652496219.0101316 17.64131827506352 -85.97559498023547 0.16607620606365536
1652496219.4102485 17.95701792637109 -86.27539971652511 0.1796398448680627
1652496219.8101296 18.192612174008413 -86.60443389331795 0.1947618992632179
1652496220.2101645 18.385460103049137 -86.9585789212618 0.21604541623027954
1652496220.2101645 18.385460103049137 -86.9585789212618 0.21604541623027954
1652496220.6101966 18.522725205424532 -87.34013235924641 0.2465253584707963
1652496221.0095074 18.594462741579317 -87.76025665166931 0.27195270181400877
1652496221.4094906 18.594615900701903 -88.19459683250149 0.28742448964319867
1652496221.8094912 18.483547698225223 -88.64542743356319 0.2931519102046515
1652496222.2095063 18.30326505788631 -89.06099287335931 0.2900034294713259
1652496222.61083 18.041973910658793 -89.44259937827957 0.2804479148824148
1652496223.4094965 17.285887270810406 -89.87409920687531 0.2644940223758976
1652496223.8096278 16.846710987926567 -89.93540582563091 0.25871091511315475
1652496224.2127 16.446648936713675 -89.86871164749041 0.2507338491342458
1652496224.612813 16.05145313380516 -89.6262874730127 0.2436999548776151
1652496225.011651 15.683524258755053 -89.24295765299516 0.22732010426165017
1652496225.011651 15.683524258755053 -89.24295765299516 0.22732010426165017
1652496225.8104305 15.049080180704605 -88.43177409954632 0.19911838958363756
1652496226.6104183 14.516847825543985 -87.6193871667605 0.14892336637950987
1652496227.0103958 14.36042756105623 -87.24525450531131 0.12900379388508346
1652496228.2102823 14.986105684898138 -85.86531933986407 0.10004513691319573
1652496229.0102568 15.692722356961417 -84.89246758467695 0.09797623447785875
1652496229.4102526 16.074092569009675 -84.45027992118241 0.10727469583185932
1652496229.4102526 16.074092569009675 -84.45027992118241 0.10727469583185932
1652496230.6099737 17.471647238374327 -83.17960676267823 0.13310390896009128
1652496231.009866 17.930413306973225 -82.79742279968363 0.12964968288598308
1652496231.4098513 18.295519826792088 -82.48558048072626 0.1321636831708601
1652496231.8099968 18.56419370998962 -82.23885562112861 0.13895535909416395
1652496232.2100327 18.74862537190574 -82.04765262282906 0.1484600557687037
1652496232.6112366 19.103196100344178 -81.63977578935612 0.16661005285373384
1652496233.0099888 19.435421184936875 -81.19834372175416 0.1856765043062193
1652496233.8100414 19.932511633436924 -80.23545302784557 0.20885644065743472
1652496234.2098904 20.1054532013824 -79.75419484198493 0.21067994164598333
1652496234.6099057 20.214766377853767 -79.29087210571198 0.21859949289602137
1652496235.0098708 20.257997711375683 -78.81566256162044 0.22692242937278606
1652496235.409872 20.245740264135783 -78.29509858695086 0.2339138248829936
1652496235.8098636 20.16436666049056 -77.80016182336588 0.24164926149201615
1652496236.2099452 20.03198189549938 -77.31051238712229 0.24811410739595838
1652496237.0099962 19.555788393279578 -76.39390592641142 0.2614678563240602
1652496237.410001 19.238842138110627 -75.93440903467564 0.2650334441938766
1652496238.2100167 18.505001693165998 -75.02730769557678 0.27336948765430896
1652496238.6100276 18.10653794255663 -74.58184064127516 0.27341949847859903
1652496238.6100276 18.10653794255663 -74.58184064127516 0.27341949847859903
1652496239.4111323 17.323100171428383 -73.75976269496128 0.26247217945767565
1652496239.8098805 16.94968872228797 -73.38030492399044 0.25699638094986677
1652496240.2099593 16.55716456473163 -73.02051843607175 0.25038094028134544
1652496240.6099033 16.144862315094333 -72.67352070236846 0.24365173623868241
1652496241.0099611 15.761053209125345 -72.34590296554646 0.24128078781342782
1652496241.411063 15.32021021304811 -72.01146252151229 0.2366881363776757
1652496241.8097937 14.861928833913753 -71.66005806607674 0.23733410255769868
1652496242.2110147 14.3821617574439 -71.30534502723968 0.23434253656368303
1652496243.0097897 13.77360878051156 -70.833579275464 0.22674772361080317
1652496243.411 13.607452012521124 -70.66702845504352 0.22455013868953197
1652496243.411 13.607452012521124 -70.66702845504352 0.22455013868953197
1652496243.809652 13.393294135403274 -70.45156444367264 0.2275151559113548
1652496244.6108677 13.32294168386458 -70.36705222630002 0.22878226488528086
1652496245.006662 13.009912088673108 -70.03860567508711 0.23118850070465213
1652496245.4108665 12.5838231956122 -69.61603794844095 0.23398348940112096
1652496246.2108295 11.84745875527705 -68.7911795419646 0.2367917162910062
1652496246.6109123 11.516371419118824 -68.3698022040492 0.23582824203695454
1652496247.0109136 11.181891128554572 -67.9171715706745 0.23493063355351965
1652496247.4110081 10.87629480907891 -67.47208778158145 0.23176161706077225
1652496247.809761 10.574577406797477 -66.98983103486162 0.22379846680414425
1652496248.210899 10.259449140717264 -66.49580952978283 0.21277575227013623
1652496248.6108718 9.969330651938948 -66.00619524760883 0.20229140736984316
1652496249.0108523 9.703703621905742 -65.50784937247508 0.19786950527657737
1652496249.4110029 9.460684026045351 -65.01763446211477 0.19951468588836704
1652496249.8110268 9.226650349853342 -64.51282165415671 0.20752200547872882
1652496250.2110667 8.98812709851716 -63.99896135143482 0.21811772638196894
1652496251.0110345 8.515746615221621 -62.920522528439044 0.22762628578660948
1652496251.411008 8.291216681157549 -62.37787225321799 0.2274648917844655
1652496251.8110144 8.092474394580304 -61.84626687936006 0.22584416172998253
1652496253.0108728 7.581401911548985 -60.34834438657777 0.22493081377708637
1652496253.4107387 7.446507769990669 -59.88174253742869 0.22926386090560547
1652496253.8106542 7.290297873659029 -59.367724931636346 0.22967721373832864
1652496254.61053 6.956701178874102 -58.32056552471405 0.21422303084592104
1652496254.61053 6.956701178874102 -58.32056552471405 0.21422303084592104
1652496255.4104245 6.731327604230173 -57.25143183260099 0.20109669970352698
1652496256.210435 6.635139384503381 -56.32327380674788 0.2019796384839837
1652496256.6103952 6.603094151386687 -55.86172912493701 0.2038679440866608
1652496257.0103955 6.5886767479503 -55.396968700439814 0.20712804044572788
1652496257.8104336 6.577181190462884 -54.579188889024486 0.223071499805482
1652496258.2104633 6.588016884301635 -54.06613145286798 0.24266425174150608
1652496258.7112176 6.585778771950865 -53.675414464557264 0.26324864556924543
1652496259.010532 6.5640316323881 -53.46552956386128 0.2690029774571157
1652496259.010532 6.5640316323881 -53.46552956386128 0.2690029774571157
1652496260.2101111 6.277741177939783 -52.617218395438314 0.2760252940392835
1652496260.6099765 6.090768254655562 -52.21845473581022 0.2850310962408303
1652496261.0111067 5.885176920977551 -51.856239224496406 0.29355327206106147
1652496261.4111574 5.646157585313401 -51.52125725291722 0.301921646256288
1652496263.3211374 5.367031462840193 -51.21239196771733 0.31052683699141503
1652496262.2111368 5.030538277784189 -50.93925684881173 0.31998394041124884
1652496262.6111085 4.661437502688914 -50.72442086144989 0.3307662167540824
1652496263.4108696 3.642825488027492 -50.40311281415201 0.3496082530182593
1652496263.8110998 3.0688801187020824 -50.26324332066571 0.3559371446804309
1652496264.210392 2.486939895202811 -50.147502654808584 0.3612406356735197
1652496264.6103706 1.8408840083014815 -49.99083991230226 0.3617371758260796
1652496265.4103854 0.9719626738599874 -49.68346039017078 0.3572686372563698
1652496265.8103764 0.7212602701698411 -49.55645889048386 0.359485609262455
1652496266.6104145 0.27494459895922646 -49.264092674400544 0.36079314991794176
1652496267.410444 -0.2713059657097664 -48.5420390449558 0.35714604344515927
1652496267.8103876 -0.5257569923697897 -48.13275301905073 0.3613926452031463
1652496268.210404 -0.6740290538106207 -47.74992192309242 0.3736777842196398
1652496268.6118088 -0.7159307435390501 -47.36915073143599 0.38201164317219544
1652496269.0119193 -0.6589777481524032 -46.97308038388124 0.38017980493503956
1652496269.4107254 -0.510106166650507 -46.5567700472806 0.3707843002715341
1652496269.810685 -0.25599063655837967 -46.213821575710845 0.36613192564686015
1652496270.2138739 0.16511924369836534 -45.81250987556523 0.36114587145387034
1652496270.6126251 0.6407434952939491 -45.371335762576294 0.35145073614573924
1652496271.012614 1.1055812416758177 -44.97338435837047 0.33928645244188566
1652496271.411244 1.5655493188660972 -44.62248721570527 0.33264781587980463
1652496271.8112547 2.013541655589179 -44.30563036146263 0.3342989066148
1652496272.2113855 2.447980907744087 -44.01767191864544 0.34129251331648497
1652496272.611352 2.8869658338189357 -43.73436434322512 0.3532825604614454
1652496273.0112748 3.354337737602084 -43.41651931986395 0.36824535763238136
1652496273.411266 3.8557785358261754 -43.07952734923907 0.38731526780007897
1652496273.8112893 4.376163630005219 -42.752382738526805 0.4028160317643944
1652496274.211278 4.8659991778706715 -42.46771160466835 0.4085078579510903
1652496274.6112797 5.1856609266746325 -42.282932655547285 0.41225831790239437
1652496275.011287 5.298016970165245 -42.20463549214499 0.4073368657634466
1652496275.411291 5.633663387068514 -42.25204797705717 0.4176069761686451
1652496275.8111975 6.024143950240225 -42.26712756839071 0.42885734367960304
1652496276.2111015 6.192062985087426 -42.27326921935123 0.4345881867945956
1652496276.610993 6.288888981972192 -42.341438927711664 0.4428734743192677
1652496277.0111132 6.363301353750009 -42.51995190596562 0.4443833507551487
1652496277.411007 6.40386182254627 -42.9115614319548 0.4480241840409941
1652496277.411007 6.40386182254627 -42.9115614319548 0.4480241840409941
1652496277.8110356 6.52147508024124 -43.46932536025441 0.45409359985485953
1652496278.2110112 6.597471603260732 -43.91129470344982 0.45794125484349824
1652496278.6109858 6.604073090833066 -44.155873243716655 0.4567883266170849
1652496279.010868 6.510612193626843 -44.45031056695721 0.45528440389833214
1652496279.4108853 6.309511915738359 -44.94975134790763 0.44709254793232717
1652496279.81105 6.058646353628803 -45.495262514957766 0.4309408907854124
1652496280.2111824 5.790033012645475 -46.03199921542127 0.4049481591273544
1652496280.611182 5.498854013115152 -46.504273015192375 0.3825917226895617
1652496281.0111494 5.196235171208797 -46.982296691464505 0.35675557048621126
1652496281.8111932 4.5269707860128126 -47.81203857601774 0.35442776573029955
1652496282.211123 4.312317188921128 -48.0589120071785 0.35895662131808714
1652496282.6113179 4.112571801591908 -48.188160570622564 0.36760695035666113
1652496283.410554 3.5759032313678616 -48.27888673070199 0.367649670401524
1652496283.8104084 3.248765629297421 -48.254044398954534 0.36753974796047256
1652496284.2117732 2.929789984250381 -48.202900881081014 0.3671043472301553
1652496285.0118349 2.318410332339886 -47.900386686530084 0.36523579461586214
1652496285.4106941 2.019293587530547 -47.68962889907704 0.3643197185376538
1652496285.810658 1.7297180629713462 -47.45804868978621 0.36607393630757723
1652496286.210614 1.4895653371662239 -47.215514575905196 0.3644220091007081
1652496286.6117907 1.3277790781659597 -46.91861978743556 0.36215025241244875
1652496287.0118015 1.2228439430068103 -46.60359771731563 0.35645753025366206
1652496287.4104111 1.2141705513809917 -46.30975036659383 0.34925236678441746
1652496287.811861 1.3927321632366312 -45.96702179111231 0.34381444528678673
1652496288.2106605 1.6478921156939894 -45.523121866566726 0.33650403208381235
1652496288.610687 1.9756511107441002 -45.04041099380449 0.33314874768054753
1652496289.0106595 2.3627972563125916 -44.617956563554976 0.33232400022149217
1652496289.4119656 2.7811919256772626 -44.2132936905385 0.33671568212444924
1652496289.810658 3.224526946169757 -43.82357687401275 0.35378757026622387
1652496290.2118976 3.7097029427364143 -43.47549952898313 0.379042223415545
1652496291.0119138 4.667405727225813 -42.839029054493764 0.4067359208762074
1652496291.410731 5.0548717254640625 -42.56501801145955 0.4092744798419014
1652496291.8118882 5.347919390452382 -42.33541927016647 0.41175136000299717
1652496291.8118882 5.347919390452382 -42.33541927016647 0.41175136000299717
1652496292.2106674 5.712237300240963 -42.03451310410037 0.41638111825343577
1652496293.010706 6.6323186315015885 -41.354532338878855 0.4482208753269664
1652496293.4119437 7.15779277411311 -41.00553394910154 0.4637342009791747
1652496293.8106623 7.662615094661708 -40.675892354239856 0.4718470349575014
1652496294.2119 8.140797618374771 -40.3483348418985 0.4654453530321039
1652496294.6119106 8.56077471514583 -40.044324472327 0.4664500549906354
1652496295.011897 8.965653043940998 -39.71583341692179 0.46583468871587275
1652496295.4119167 9.356959267584537 -39.359724389322224 0.4664547074773182
1652496296.2118926 10.020038576778841 -38.687665814283136 0.46261727517255924
1652496296.2118926 10.020038576778841 -38.687665814283136 0.46261727517255924
1652496296.6119018 10.202466725984742 -38.4588822602278 0.46319876746372707
1652496297.0119276 10.344630574572177 -38.18247682658374 0.4604327803624379
1652496297.4118865 10.444459894877308 -37.901271242787054 0.459717850238823
1652496297.8119204 10.49705164680516 -37.69555059133543 0.46070329285588457
1652496298.6119137 10.516140867523827 -37.31200525637008 0.4641116247872619
1652496299.0118158 10.233091648456998 -36.990179969942744 0.4630419505056804
1652496299.4119422 9.874666434257335 -36.55576091286196 0.46994365846871033
1652496299.8118796 9.471545324959594 -36.13482298471366 0.47181917543778423
1652496300.2118757 9.076373314778099 -35.762642308374666 0.4682591461274897
1652496301.0119433 8.303562728664241 -35.17653871301464 0.4602813329076267
1652496301.4119372 7.893058531740556 -34.933866227868656 0.46213258120498774
1652496301.811914 7.457942813361089 -34.71172508510867 0.46227259103012525
1652496302.2118826 6.965579063759633 -34.49833818794182 0.4628597107885616
1652496303.0119271 5.910009980842357 -34.13102099045353 0.44735985338763007
1652496303.411947 5.344427827249 -33.97510693838198 0.4269996984853287
1652496305.0119011 3.310276008703187 -33.49782975895952 0.39737685392392114
1652496305.411912 2.730159535781967 -33.41510829908659 0.40397879317428576
1652496305.8119185 2.2805259134643525 -33.34344810688111 0.4066672372960049
1652496306.211945 2.0108414761520144 -33.33821985668815 0.40134744968360186
1652496306.6119256 1.790780869491141 -33.410177435847544 0.3985582240777021
1652496307.0119164 1.535511001389831 -33.59622173692273 0.39384845861521117
1652496307.411959 1.110931106577629 -33.9540494116977 0.38760625671289173
1652496307.411959 1.110931106577629 -33.9540494116977 0.38760625671289173
1652496307.8121 0.6826747601555527 -34.33463147230136 0.3853735854585608
1652496308.6123984 -0.17866956403055687 -35.11395949094587 0.39625768274064205
1652496309.4111624 -0.9968441172533008 -35.94019874215699 0.40663253459091536
1652496309.811151 -1.392052364572948 -36.377325092962494 0.4082994843514747
1652496310.2111492 -1.7891552753039899 -36.828887649993966 0.4081666914606702
1652496310.611046 -2.2023745553912466 -37.285244506193564 0.40602908426729495
1652496311.0111434 -2.609429877383251 -37.72914235188189 0.3984066988965361
1652496311.4111865 -2.9999301968993644 -38.15542682980139 0.39048125411388585
1652496311.8111293 -3.3568655859097993 -38.47984109178109 0.3876574683340943
1652496312.2111528 -3.7102783465969007 -38.73573195541954 0.38763289637553766
1652496313.0111656 -4.514139073871146 -39.120071550529794 0.3901335425522928
1652496314.21116 -5.908971698039394 -39.19012640593888 0.37338403756105354
1652496314.6123333 -6.348942438212402 -39.00540076612118 0.3725666727713777
1652496315.811889 -7.39182444362711 -37.75190850892353 0.38315357331547945
1652496316.215022 -7.533740517659828 -37.176590842073004 0.3849046626910447
1652496316.6148305 -7.607685735734392 -36.55492982520549 0.3902064329177669
1652496316.6148305 -7.607685735734392 -36.55492982520549 0.3902064329177669
1652496317.0137367 -7.623716296945662 -35.93123675560198 0.3950901054170152
1652496317.4136994 -7.59587136225075 -35.3490910578669 0.4026000631667028
1652496317.8123956 -7.538173704383131 -34.76316460843969 0.4089335932726508
1652496318.2124274 -7.466447697758552 -34.189582772904174 0.4138430121955808
1652496318.6112916 -7.367310463779164 -33.63649475793172 0.4210926487137522
1652496319.0113926 -7.251112148194474 -33.06943258174663 0.4216720662327279
1652496319.8113546 -6.889968512673217 -32.01030525845449 0.4230562112362323
1652496320.2112565 -6.615595870454268 -31.459102811363678 0.42413997042138407
1652496320.611366 -6.337805770274146 -30.966456186705514 0.42497607399168696
1652496321.0113716 -6.057801212717307 -30.53068718213707 0.43275443162448174
1652496321.0113716 -6.057801212717307 -30.53068718213707 0.43275443162448174
1652496321.4118357 -5.766969516455899 -30.074806197674057 0.4380864576519469
1652496322.2119122 -5.13531195532645 -29.157382699450935 0.44827179530891537
1652496323.0119352 -4.565525460097798 -28.23141150750917 0.4541129820462488
1652496323.4118972 -4.355645240329533 -27.776296483610956 0.45288970053258504
1652496323.8119354 -4.171585699056884 -27.335275519226364 0.45145520304287645
1652496324.21189 -4.03774677796079 -26.880405501406308 0.45005151102388746
1652496324.6119175 -3.937249197579099 -26.40245823283468 0.4470719082691157
1652496325.01193 -3.893716367749599 -25.93170096354503 0.4434608971787456
1652496325.8119137 -3.9555222733509505 -24.964342375904394 0.4461291705655113
1652496326.2120771 -4.051180699522456 -24.38777772592884 0.44790916910248246
1652496327.4115229 -4.681636974813787 -22.84215859849152 0.4393068532076147
1652496327.8115246 -4.985829272151507 -22.392434723997738 0.43484304663930157
1652496328.211539 -5.308695151164383 -21.966086249480536 0.43093491094869096
1652496328.211539 -5.308695151164383 -21.966086249480536 0.43093491094869096
1652496328.6114018 -5.666878430938818 -21.553345368817318 0.4322336841847468
1652496329.0113757 -6.052576293230996 -21.17440123843368 0.43878634236329045
1652496329.411393 -6.456331712859621 -20.79795132327232 0.4522636434016933
1652496329.8126898 -6.908583753470519 -20.41837157028027 0.46389543914875914
1652496330.611395 -7.963053806044472 -19.691502874640772 0.4524139707204797
1652496331.4113688 -8.882055304116475 -19.127291180055018 0.4325995201254476
1652496331.8114023 -9.45753654941472 -18.78288899334036 0.43969580683288767
1652496332.2113671 -9.897894510711536 -18.447023127781225 0.44131674623943
1652496332.6113741 -10.20732333710296 -18.20939881584914 0.42865822300408224
1652496333.011378 -10.37120605760907 -18.031408046999967 0.43158259932504195
1652496333.411427 -10.532182705870522 -17.836205630285125 0.43089159337237415
1652496333.811383 -10.791634626126452 -17.406225772876038 0.42726249083510986
1652496334.2113767 -11.034697626929946 -16.94654945137429 0.42189445885507115
1652496334.6113687 -11.17286203064353 -16.539385849422455 0.41493536018669464
1652496335.8112373 -11.107728122042332 -15.437344580415127 0.4142062236074609
1652496336.6112287 -10.620638535597532 -14.925716592096828 0.43005363694205206
1652496337.0114627 -10.251724663087344 -14.714909210058728 0.43876312646588855
1652496337.411587 -9.5719397115963 -14.65757299612769 0.4395710137876386
1652496337.411587 -9.5719397115963 -14.65757299612769 0.4395710137876386
1652496337.8116953 -9.16770921210346 -14.769445596519093 0.4415903953587588
1652496338.211756 -8.621253532063234 -14.975071130432834 0.45307609487751827
1652496338.611742 -8.0797231320538 -15.213176271173884 0.46520486270121186
1652496339.4119031 -6.913647342683069 -15.890106486036869 0.46535310710405525
1652496339.8118806 -6.438458568796171 -16.243264128855532 0.448307658002531
1652496340.2119467 -5.952673462684956 -16.60129351322142 0.44181190271613
1652496340.6121178 -5.459990376897406 -16.97957555947323 0.4423197398098232
1652496341.8124607 -4.3289028995616015 -17.913099430407364 0.4490582270648837
1652496342.6123383 -3.5929900031266317 -18.466671224759256 0.461132441394663
1652496343.013533 -3.230706643904853 -18.664481935626146 0.46943151832715135
1652496343.4134538 -2.9113748873521046 -18.84351846412578 0.47285087643550733
1652496343.813467 -2.5915566940792356 -18.988569645656597 0.4827975408270044
1652496344.2134986 -2.263945696594069 -19.094959105346636 0.48086005593253467
1652496345.0136087 -1.5854188504544906 -19.242531315279983 0.48927361635504935
1652496345.4123847 -1.2654344609796648 -19.260619992754375 0.48991704104539896
1652496345.813602 -0.8755038265445507 -19.256301583627184 0.48568164311175926
1652496346.2136028 -0.45111960946631463 -19.208322745939395 0.48744252580677666
1652496346.6123734 -0.032092762838906795 -19.124296273513064 0.4916278847058737
1652496347.8134913 1.0588271264176392 -18.565004481828694 0.5053590844905064
1652496347.8134913 1.0588271264176392 -18.565004481828694 0.5053590844905064
1652496348.2135217 1.3607634467823932 -18.3272477237973 0.5110445124217743
1652496348.613512 1.6116046808977258 -18.031712427865752 0.5166312720518171
1652496349.013372 1.8300586282864424 -17.67855036417755 0.5176837615976484
1652496349.4135208 2.0863362373835326 -17.18635046992487 0.5232209529790449
1652496349.8135889 2.33404225578348 -16.640193249684184 0.5268549242297647
1652496350.213632 2.561383888336616 -16.0844931641605 0.5264002860046498
1652496350.6136367 2.7688594127907753 -15.543688698972291 0.5271330749017944
1652496351.0137928 2.994258273512216 -15.003958754824728 0.5285556925594568
1652496351.8137858 3.4377804096297933 -14.01063676570715 0.5333125202221423
1652496351.8137858 3.4377804096297933 -14.01063676570715 0.5333125202221423
1652496352.6135104 3.900248087116479 -13.067891130753713 0.526693763558912
1652496353.0135202 4.136961237626884 -12.643440671112907 0.5236179143105433
1652496353.413467 4.388951856453044 -12.211071460937045 0.5163169298692794
1652496353.8134818 4.66859494943892 -11.821206353738308 0.5200833618151425
1652496354.2134616 4.954348875602476 -11.434134263125818 0.5240338278932501
1652496354.6134617 5.289641634452196 -11.042204302875923 0.5283520091155826
1652496355.0134614 5.654496462474986 -10.651954667958691 0.5353107117575848
1652496355.8133163 5.988599094062342 -10.303805234489861 0.5363642873201984
1652496356.213275 6.074533749812094 -10.219819216223309 0.5354907521374149
1652496356.6132112 6.036243677101328 -10.251324491619014 0.5350135087002962
1652496356.6132112 6.036243677101328 -10.251324491619014 0.5350135087002962
1652496357.4128525 6.0579138270645565 -10.234701427805645 0.5337838036672051
1652496357.812833 6.058892471456648 -10.234461886235344 0.5337373445193255
1652496358.2128384 6.05845757484361 -10.234863407150614 0.5338740908633312
1652496358.6129012 6.05779605627686 -10.2355885221873 0.5339460476778802
1652496359.4128573 6.1477120015981574 -10.146609172513845 0.5333338342973791
1652496360.2128878 6.325780887626663 -9.94792946553499 0.5306596947526006
1652496360.6142776 6.504058592317242 -9.743427827879165 0.5295554910423039
1652496361.014324 6.67300754535058 -9.516742070180678 0.5324136715066309
1652496361.4131653 6.971314834406592 -9.092548292771587 0.5290105299614822
1652496361.8132124 7.294770519351861 -8.609425514471056 0.5318478193565942
1652496362.6162038 7.883979263051538 -7.711470984491427 0.5340165484757563
1652496363.014934 8.094041678469397 -7.366468125810542 0.5336777475807039
1652496363.4137328 8.272604385980815 -7.026481041945475 0.534869289455002
1652496363.813736 8.455578456217342 -6.614244447910012 0.5323029987994795
1652496363.813736 8.455578456217342 -6.614244447910012 0.5323029987994795
1652496364.213602 8.617655360920986 -6.152993486958701 0.5235186326325517
1652496364.613511 8.739359773173044 -5.669158720708886 0.522228170052528
1652496365.0134697 8.874744384066771 -5.1097632378061535 0.5189062981535975
1652496365.4134705 8.99221620647427 -4.567010056726218 0.5204336914320002
1652496365.8135304 9.077114501181429 -4.039270589634403 0.5215925640746096
1652496366.213531 9.156536190236414 -3.4563517514473854 0.5153192262713744
1652496366.6137211 9.230331228294164 -2.8577894332310847 0.5027845178422016
1652496367.0137095 9.311805698975395 -2.3533741256460377 0.49723385063985637
1652496367.413719 9.403224012168147 -1.8510913859274487 0.4960116837320854
1652496367.8137026 9.517679854713363 -1.3699084745453838 0.49472232447137865
1652496368.213699 9.663465900338156 -0.8776437147124767 0.4883991770445966
1652496368.6137452 9.809745185043324 -0.40933367689728 0.48297649371040163
1652496368.6137452 9.809745185043324 -0.40933367689728 0.48297649371040163
1652496369.0136135 9.992211487203843 0.07180464482056943 0.4786246016798958
1652496369.4136336 10.202197290739724 0.5587783197123549 0.4772372045613387
1652496369.8137047 10.420457746239798 1.0374450114079585 0.4778173855082264
1652496370.213749 10.673298237557114 1.5326455604931262 0.483223857578322
1652496370.6137066 10.933056240370162 2.1040701776888344 0.4769871042785239
1652496371.0136962 11.152402620352625 2.527236702655067 0.469632795549056
1652496371.4137526 11.219641395813905 2.753569205593237 0.46857496632825674
1652496371.813801 11.260581713162411 3.0124425706912596 0.4655092039303324
1652496372.2137306 11.326205396363253 3.368160756835913 0.4597999025507268
1652496372.613762 11.40251456894458 3.5510580491962185 0.4559196853050727
1652496373.0137062 11.44281415217468 3.672872404815994 0.45734974545539886
1652496373.4137197 11.424092634161955 3.8119840625362005 0.4538248127225773
1652496373.4137197 11.424092634161955 3.8119840625362005 0.4538248127225773
1652496373.8139303 11.372734372890184 3.9581379327827415 0.4519479458545975
1652496374.213769 11.299733417476812 4.119684268554567 0.4465550402388758
1652496374.6137586 11.044489489502784 4.2793167095256015 0.44142098326889206
1652496375.0137312 10.737642552392591 4.475783680617508 0.436174096160002
1652496375.413721 10.560379565663549 4.648639747151451 0.4318454836948071
1652496375.8137035 10.444179605432746 4.715019093694008 0.4291206274590495
1652496376.2137034 10.317082291669546 4.7158503017731315 0.42863757639770633
1652496376.613656 10.197196436163615 4.663292721566625 0.43044551653070307
1652496377.0137172 10.119371214631721 4.577198340961136 0.4324105438008874
1652496377.413707 10.05023859055431 4.404321188106546 0.43703991865156644
1652496377.815614 10.050495425640062 4.239853668987406 0.4465341068901838
1652496378.214227 10.090813429012146 4.077965281673833 0.4474294873439748
1652496378.614283 10.22276610243529 3.9597404812013455 0.45059685797679494
1652496378.614283 10.22276610243529 3.9597404812013455 0.45059685797679494
1652496379.014237 10.41980215259048 3.90676563778911 0.450475866891833
1652496379.4142034 10.609074510603088 3.8870169809078914 0.44789700547792916
1652496379.8140812 10.808190898077513 3.8936225986780015 0.4464353280326881
1652496380.2140942 10.99294317393031 3.926355399368494 0.4454764602018793
1652496380.613983 11.147337832300943 4.018035572450667 0.44230346412243304
1652496381.013948 11.251734239100411 4.156457088438527 0.44302960240804307
1652496381.4138656 11.282678724981844 4.3199315028532785 0.44146908227220405
1652496381.8137224 11.24171012810046 4.469953034632181 0.436469687133728
1652496382.2137003 11.141015089499588 4.609747812184854 0.43266534820647995
1652496382.613619 10.84601832912344 4.681829135873016 0.43083858561662924
1652496383.0136194 10.433628450623308 4.661847630016652 0.4277187735163867
1652496383.4136217 10.140765234338087 4.632387688415848 0.4318317531722739
1652496383.4136217 10.140765234338087 4.632387688415848 0.4318317531722739
1652496383.8138092 9.90912202123276 4.503377165066228 0.4331054207020025
1652496384.6140945 9.399328004185222 3.824693083478821 0.4535068487827216
1652496385.0141342 9.110520365474265 3.3120816251524796 0.4587418450952645
1652496385.4140818 8.90178230346975 2.8408687865271345 0.4576560152623954
1652496385.814069 8.764222578086692 2.3769465924885886 0.45321271887998643
1652496386.2139528 8.691454487520014 1.9138657684758504 0.4577139681837563
1652496386.6138253 8.687506216041488 1.4015947936024657 0.46230957147119506
1652496387.0138838 8.718694183181517 0.8518176803764306 0.47205438237639047
1652496387.4138374 8.77603913159159 0.3219687613455802 0.4767672239878607
1652496387.813837 8.849425115788714 -0.16399216063737912 0.4760278213912258
1652496388.213883 8.940935631332474 -0.6024608336324471 0.4803762287137003
1652496388.6138365 9.061625262255488 -1.0556283350881142 0.48965156423851974
1652496388.6138365 9.061625262255488 -1.0556283350881142 0.48965156423851974
1652496389.0138674 9.208961325091753 -1.5319987862565214 0.49274611547521857
1652496389.4138188 9.37501649023959 -1.9850839514115455 0.4928469348634851
1652496389.8137329 9.521427808588989 -2.3523966214998597 0.49339359998598387
1652496390.2137341 9.655459908322749 -2.6382014068394195 0.49751160847098197
1652496390.613699 9.752750545981561 -2.8662914538642226 0.5014328761685526
1652496391.013725 9.936906175622541 -3.21825426238271 0.5100289386661528
1652496391.413868 10.21362532638868 -3.6926603737294275 0.5190943310502868
1652496391.8138576 10.473353855805168 -4.161598800449635 0.5284694679944044
1652496392.2138634 10.732042552743302 -4.620175225314887 0.5328491911610583
1652496392.613857 10.9942651473289 -5.100294471355535 0.5372381702940999
1652496393.0125926 11.234318713098014 -5.577486291342964 0.5352375989308631
1652496393.4138403 11.456529583150514 -6.0430589930724095 0.5240172339612933
1652496393.4138403 11.456529583150514 -6.0430589930724095 0.5240172339612933
1652496393.8138719 11.624852832359732 -6.471452576635311 0.5202514935515973
1652496394.2138877 11.772970358521917 -6.888920512258994 0.513074735527904
1652496394.6138446 11.878135062958833 -7.298688782887434 0.5172015525535962
1652496395.0138676 11.953523674746233 -7.690638503945466 0.5255103404982177
1652496395.413864 11.986664181511166 -8.077457458505666 0.5295545244464088
1652496395.8138442 11.997185121884565 -8.435194464249637 0.5374767918931449
1652496396.213831 11.98007686728251 -8.794418245106536 0.541331740739728
1652496396.6138115 11.952805919937086 -9.154240105684021 0.547938141806424
1652496397.0136814 11.898730616702373 -9.568201553240637 0.5553630774955263
1652496397.4137003 11.83332037754383 -9.92701686032695 0.5610960125865793
1652496397.8137062 11.782926908931492 -10.229096417782971 0.5628688859066772
1652496398.2137768 11.712268280757561 -10.591686956473279 0.563510276992568
1652496398.2137768 11.712268280757561 -10.591686956473279 0.563510276992568
1652496398.613657 11.588984784903896 -11.099074910991517 0.5652225197792069
1652496399.0137606 11.439103692331644 -11.696842460716086 0.5661660975026135
1652496399.4138594 11.268257840906676 -12.258504071113165 0.5658231406799222
1652496399.8138514 11.07229274204579 -12.836681753354865 0.5671357709820436
1652496400.6138515 10.756789114345251 -13.742682051382651 0.5663198225247069
1652496401.0138683 10.607178800643814 -14.175508692678585 0.5686697031433899
1652496401.4139743 10.438672077558543 -14.650078830671438 0.5744236133957159
1652496401.8139913 10.266563242503029 -15.114003400985899 0.5752214690817731
1652496402.2139616 10.116641939149018 -15.520041377657176 0.5755884272950865
1652496402.6139405 9.975505001534364 -15.84834478905451 0.5727094218047261
1652496403.01382 9.870545913240818 -16.109273661509587 0.5726725896959949
1652496403.01382 9.870545913240818 -16.109273661509587 0.5726725896959949
1652496403.4139187 9.849873956811633 -16.170070531787985 0.5708517371058228
1652496403.8139675 9.853534777053309 -16.161312535914494 0.5708859265644417
1652496404.2139645 9.855414433208216 -16.160151244309063 0.5713129822117302
1652496404.613956 9.854179109591731 -16.161196753653766 0.5716647414316584
1652496405.0139742 9.854542737507977 -16.161379041128498 0.5718371778905882
1652496405.4139905 9.853981978351705 -16.160408572841828 0.5715066401733396
1652496405.8139694 9.853663506081492 -16.1598383121754 0.5715855909286365
1652496406.2140272 9.853907266000537 -16.160190103180085 0.5716826274902425
1652496406.615229 9.853608411916056 -16.159682857135543 0.5716297536462845
1652496407.015214 9.853915216458441 -16.160118621751185 0.5715789546205706
1652496407.4139626 9.853897400799227 -16.160096257553604 0.571524594213852
1652496407.8127258 9.853947880566878 -16.160204741541637 0.571562668477718
1652496408.21403 9.853932833713822 -16.16019034458869 0.5715665186107433
1652496408.21403 9.853932833713822 -16.16019034458869 0.5715665186107433
1652496408.615235 9.854066684821955 -16.160379589156822 0.5715283294123424
1652496409.0152018 9.853991655697659 -16.16026339660953 0.5714688629205696
1652496409.4139614 9.854123586710774 -16.160487754974174 0.5714648395668064
1652496409.813965 9.853876928316012 -16.160146060860175 0.5714634347999644
1652496410.2127633 9.853728590034066 -16.15988565710104 0.5714442740173682
1652496410.6139944 9.853615228438281 -16.159710025901504 0.5714070456160958
1652496411.014082 9.853699400010823 -16.15981094587554 0.5714094883073443
1652496411.4127352 9.853921219493115 -16.160226121530822 0.5714180452814369
1652496411.813965 9.854297355781718 -16.160828128482393 0.57143504048288
1652496412.613815 9.85432620913116 -16.161042782951686 0.5714945393910449
1652496412.613815 9.85432620913116 -16.161042782951686 0.5714945393910449
1652496413.0138826 9.854189513976818 -16.160867147884804 0.5715282814388719
1652496413.413848 9.854272942392669 -16.161038237411965 0.5715473866071219
1652496413.813852 9.854127113223687 -16.16085675921687 0.5715725103992736
1652496414.213743 9.854145886585531 -16.160950370243402 0.571583842434923
1652496414.6137252 9.854129297879236 -16.160936871271986 0.5715888806587609
1652496415.0137537 9.85399401776417 -16.160703016368128 0.5715878489229592
1652496415.4138439 9.854133219266386 -16.160934164566115 0.5715977900232039
1652496415.8137252 9.854193234037913 -16.161002891609964 0.5716016976950419
1652496416.214194 9.853403720220093 -16.159728066370104 0.5715614166820284
1652496416.6142051 9.855138133637094 -16.164878023624958 0.5716413807657909
1652496417.0142095 9.799767351058591 -16.297109087724028 0.5714480976175047
1652496417.4142034 9.673616967974247 -16.553302123238034 0.5704107627012873
1652496417.814219 9.376363696453984 -16.9613155128264 0.5704346969213739
1652496417.814219 9.376363696453984 -16.9613155128264 0.5704346969213739
1652496418.6142123 9.221618366718706 -17.167869639157157 0.570447895104441
1652496419.4142823 9.214761430258125 -17.175162598474174 0.5707544934303269
1652496420.2144034 9.215956709481906 -17.174633627662917 0.57078953479867
1652496420.6143978 9.215260707690389 -17.17408895866012 0.5707443911353527
1652496421.0143251 9.215289669103104 -17.174233585114603 0.5707078211568354
1652496421.4143364 9.215249252469764 -17.174199703077036 0.5706717997637387
1652496421.8143277 9.21520297306734 -17.174077840170423 0.5706447494866624
1652496422.2143264 9.215229601417013 -17.174166317552178 0.570627203119306
1652496422.614244 9.215522521171552 -17.174714166541154 0.570593990620946
1652496423.0141964 9.21562593605661 -17.174875815860645 0.5705512371732913
1652496423.4142292 9.215557122479908 -17.17467439849212 0.5705487554676171
1652496423.8142872 9.215629925182553 -17.174806192812575 0.5705320479098416
1652496424.2141805 9.215576736364909 -17.17471159966059 0.5704792833696195
1652496424.61423 9.21566907626706 -17.17483253420807 0.5704738905542932
1652496425.0144129 9.215335595679523 -17.17419485338252 0.5704488270009864
1652496426.215074 9.215609639775842 -17.1746621919802 0.5704099016851378
1652496426.6138263 9.215534823016837 -17.174418508521303 0.5704096139019392
1652496427.0138445 9.215772627710654 -17.174893419688047 0.5703862963223295
1652496427.415162 9.215690366672039 -17.174745294895324 0.5703638863235192
1652496427.8139062 9.215806798400797 -17.17492148687529 0.5703565796692992
1652496428.2138505 9.2157106876129 -17.17470092921946 0.5703458819983787
1652496428.6139996 9.215867011007637 -17.17499225862897 0.570329550238298
1652496429.0139897 9.215850685315937 -17.17484333435873 0.570291504709957
1652496429.413982 9.21544442035174 -17.17409916095711 0.5702048439720119
1652496430.2142138 9.215518606992708 -17.17417396092619 0.5701726035024093
1652496430.614227 9.215623447208147 -17.17434538467509 0.570154299193828
1652496431.0129683 9.215483665987138 -17.174103016825242 0.5701384574812478
1652496431.4142096 9.215853649145474 -17.174745252981307 0.5701203627904513
1652496431.8129964 9.215934346257017 -17.17489564082232 0.5700999555485489
1652496432.6139748 8.851363870697993 -17.65793921115209 0.568422633603789
1652496433.013956 8.587106519411114 -17.973595089154816 0.571881041206771
1652496433.4139771 8.210016141965472 -18.46338461210147 0.5676386307643937
1652496433.8139544 7.8227793854370145 -18.942492168553187 0.560733820604718
1652496434.213947 7.422194431635349 -19.415818291419995 0.5530485962071398
1652496434.6150815 7.047553126070216 -19.884985484031255 0.5449283409755263
1652496435.0150762 6.664232149053633 -20.36026064389748 0.5367115637070418
1652496435.415099 6.2930054344978235 -20.817290459210973 0.5351846260437051
1652496435.8151014 5.900072304032139 -21.293813854638643 0.5322197035162665
1652496436.2151115 5.521576874223871 -21.754537009093685 0.5292304679945065
1652496436.615075 5.12031807324415 -22.197352985852355 0.5326115130907332
1652496436.615075 5.12031807324415 -22.197352985852355 0.5326115130907332
1652496437.015232 4.695365993276227 -22.679112307982173 0.5293550851693556
1652496437.4139824 4.348191371492346 -23.049149972454266 0.516651788252864
1652496437.8140259 4.3511965928498535 -23.04912219056731 0.5121030457477982
1652496438.6139941 4.91530951776491 -22.41592788187493 0.5134960023744978
1652496439.0152822 5.307853697438065 -21.97173061845273 0.5293133458742806
1652496439.4154494 5.705230042153555 -21.522824180106486 0.530082549775147
1652496439.815461 6.091021510158617 -21.045484627200935 0.5289526344368319
1652496440.214201 6.477005370763814 -20.581844344057888 0.5362155014742866
1652496440.6142066 6.852381433891161 -20.117963527586973 0.5403680650506166
1652496441.0142167 7.204056264987393 -19.692958139808873 0.549293360544571
1652496441.4142582 7.521709734193961 -19.296054609492906 0.5549999655598874
1652496441.4142582 7.521709734193961 -19.296054609492906 0.5549999655598874
1652496441.814098 7.845545824902683 -18.92833025442449 0.5611285843343286
1652496442.215217 8.10820793198805 -18.59940970269113 0.5649604095931674
1652496442.6152153 8.339869272237216 -18.31950623127066 0.5671653323446396
1652496443.4152489 8.768758566894366 -17.78465005103982 0.5719812657255051
1652496443.8151155 8.97788542314041 -17.53625010759106 0.5679129788427105
1652496443.8151155 8.97788542314041 -17.53625010759106 0.5679129788427105
1652496444.2151191 9.160251467622537 -17.295267830806466 0.568676800886057
1652496444.6138694 9.33868255999219 -17.0643709719502 0.5732718406193041
1652496445.4137294 9.653428192744704 -16.653222861454033 0.5684107905131481
1652496446.213633 9.651186414348864 -16.658669136762022 0.5678490116933781
1652496446.6136966 9.408812549459737 -16.967121265205346 0.5715267677464508
1652496447.0160863 9.056745131637536 -17.423135758129234 0.5742552678161218
1652496447.4149785 8.738535968089755 -17.807128590882932 0.5710172784877863
1652496447.8137805 8.73233720315967 -17.818256727754296 0.5647710892103607
1652496448.2136843 8.727616217482124 -17.825073148695356 0.5699075820688082
1652496448.6149838 8.735192337724481 -17.817096790002207 0.5687913152546363
1652496448.6149838 8.735192337724481 -17.817096790002207 0.5687913152546363
1652496449.0149922 8.734966713541905 -17.817175420035998 0.5676998703741237
1652496449.4137917 8.736904091858165 -17.816780905335563 0.5674034751711143
1652496449.813748 8.734559043096526 -17.817209137024363 0.5673198046113217
1652496450.2137055 8.733676278037567 -17.81737479611425 0.5673098246667683
1652496450.6136973 8.733783230839038 -17.81810216895418 0.5673127273540495
1652496451.0167856 8.731134235612227 -17.812275911005454 0.5671336733500075
1652496451.4145858 9.180518884650699 -17.27049233445706 0.5717829579623914
1652496451.8146672 9.529246986160643 -16.816473510878968 0.5767883078001047
1652496452.214679 9.896305823815753 -16.344438221400793 0.5725162115416249
1652496452.6134357 10.207695807335295 -15.939134877390101 0.5760104486287385
1652496453.0158312 10.375893402644348 -15.734667421050876 0.5745141130663769
1652496453.414596 10.340507221082364 -15.776936991581142 0.5734002656108556
1652496453.414596 10.340507221082364 -15.776936991581142 0.5734002656108556
1652496453.8144615 10.348998841404402 -15.767583680313418 0.5728253376203433
1652496454.214321 10.338903780459118 -15.778351175754693 0.5719594097055705
1652496454.6167006 10.345221250562838 -15.773496526185793 0.5724914081182191
1652496455.0155506 10.3445694402595 -15.774265121750432 0.5723229256605559
1652496455.41562 10.344818147513918 -15.773993816943518 0.5726664767882064
1652496455.8143904 10.344851017250878 -15.773917504694657 0.5728561568550518
1652496456.2143774 10.34459036040991 -15.773886378239265 0.5724908007016954
1652496456.614543 10.344599268643902 -15.774011266745218 0.5725148587390034
1652496457.0144963 10.344447528155033 -15.77376853804731 0.572714115861289
1652496457.4145136 10.344672056314163 -15.77418547512942 0.5726626919364792
1652496457.8144677 10.344575190660645 -15.774053437753548 0.5724473951500744
1652496458.21444 10.344455355804447 -15.773818836096709 0.5725057937356424
1652496458.21444 10.344455355804447 -15.773818836096709 0.5725057937356424
1652496458.6146529 10.34430652182827 -15.773499494006739 0.5724563939607554
1652496459.013475 10.344684684533851 -15.774076675131019 0.572465806577083
1652496459.413459 10.344312611899888 -15.773554705978034 0.5724733019636437
1652496459.8135011 10.344367845313593 -15.773661081309166 0.5725000308520244
1652496460.6134963 10.344443564826099 -15.773839758965494 0.57247206239247
1652496461.0135167 10.344532435379916 -15.77398554024665 0.5724535485176251
1652496461.4135826 10.344374112677258 -15.77374357964718 0.5724213611139627
1652496461.8135853 10.344460581260584 -15.7739024480312 0.5724152849059164
1652496462.213564 10.34450019049905 -15.773972032154921 0.5724194900149796
1652496462.613435 10.344573152619187 -15.774067620268728 0.5724231340562665
1652496463.014584 10.344617721070149 -15.774110185945052 0.5724228843420989
1652496463.4146602 10.34428963172272 -15.773644474652043 0.5723931451754658
1652496463.4146602 10.34428963172272 -15.773644474652043 0.5723931451754658
1652496464.2137275 10.344492952665982 -15.773882649707346 0.5723759224860687
1652496464.6137207 10.344346669081052 -15.773739553561402 0.5723689616556618
1652496465.01373 10.344726037673993 -15.774338031929467 0.5724289962370931
1652496465.4137273 10.344726997003272 -15.774372454987263 0.5724521047299
1652496465.8137295 10.344761501325731 -15.77439697229621 0.5724716694117572
1652496466.6136935 10.344720481199465 -15.774364140223406 0.5724692630640802
1652496467.0137246 10.344505360094868 -15.774051237278 0.5724512117439065
1652496467.8137102 10.34428850327916 -15.773649237604713 0.5722824586787181
1652496468.213729 10.344429963554328 -15.77382063985035 0.5722559908108739
1652496468.213729 10.344429963554328 -15.77382063985035 0.5722559908108739
1652496468.6136053 10.344477926863014 -15.773921873621696 0.5722261829137619
1652496469.0136602 10.3444949602711 -15.773946766619233 0.5722214704000117
1652496469.4137557 10.34452915740865 -15.77394920342648 0.572195737159333
1652496469.8137305 10.344365941660271 -15.773674387686349 0.5721682662560187
1652496470.213716 10.344349686009176 -15.773614480360896 0.5721347780011904
1652496470.6137402 10.34435350698479 -15.773624088914984 0.5721306422247125
1652496471.0137274 10.344373066626696 -15.77363554414892 0.5721208908886575
1652496471.4137635 10.343883773504135 -15.772892686338526 0.5720915103130733
1652496471.8137221 10.344260447221858 -15.773447067017322 0.5720967524345656
1652496472.6136885 10.344075649360619 -15.773079912823482 0.5720366616286066
1652496473.0137491 10.344340049414892 -15.773469033376667 0.5720310965904627
1652496473.4137602 10.344193551788718 -15.773242406123089 0.5720220149935206
1652496473.4137602 10.344193551788718 -15.773242406123089 0.5720220149935206
1652496473.8137379 10.34428553763088 -15.773409684559354 0.5720141672584939
1652496474.213713 10.344526204410771 -15.77377828449749 0.5720139056866984
1652496474.613849 10.34412274632305 -15.77314686567049 0.5719781247840883
1652496475.013856 10.344548006335637 -15.773789376365974 0.5719736704953224
1652496475.4138718 10.34471004740844 -15.774031060051286 0.5719463627875803
1652496475.8138485 10.344591259510077 -15.773833718189382 0.5719482629513312
1652496476.2139509 10.344530660699252 -15.773729968355275 0.5719461016763029
1652496476.6138403 10.344708611615646 -15.773960250775122 0.5719454301701854
1652496477.0138648 10.344501835435263 -15.773654676926418 0.5719043122669762
1652496477.4137309 10.344697573590688 -15.773933694008742 0.5718876955078329
1652496477.813708 10.344474485815686 -15.773566507494484 0.5718610359938625
1652496478.213713 10.34453643220318 -15.77366961004781 0.5718566857495193
1652496478.213713 10.34453643220318 -15.77366961004781 0.5718566857495193
1652496478.615431 10.344315732162064 -15.773348207941615 0.5718439662541019
1652496479.014242 10.344434851639415 -15.773521200423886 0.5718476735557585
1652496479.4141133 10.344294718505603 -15.773314004474924 0.5718474879357828
1652496479.8141568 10.344666524138427 -15.773871760425452 0.5718476889958953
1652496480.2142878 10.340222251459583 -15.785752806839778 0.5719396108357276
1652496480.6142282 10.272062763139662 -15.867752733127773 0.5736934037801663
1652496481.0142436 10.159896214389393 -16.005003216664576 0.5754296044251516
1652496481.4142435 10.074660840124714 -16.105875139802322 0.5740626981391321
1652496481.8142014 10.052796373349201 -16.136018703756914 0.5728902160581508
1652496482.2141824 10.001487340163303 -16.208181439586692 0.5709853213751191
1652496482.6153224 9.820839876169627 -16.41060486602399 0.5681477960716105
1652496483.0153334 9.620719330181016 -16.615414167872036 0.5623139040720048
1652496483.4154239 9.39417964812294 -16.80482490165207 0.5631354041568082
1652496483.4154239 9.39417964812294 -16.80482490165207 0.5631354041568082
1652496483.8154588 9.15189712040758 -16.987483132346625 0.566256881990665
1652496484.2142148 8.860649098555708 -17.17246990896334 0.5641260634136382
1652496484.6142256 8.529315302875121 -17.281119517976077 0.565740301312579
1652496485.014249 8.201026324920669 -17.33360604287168 0.5694280611552544
1652496485.4143996 7.879639964674364 -17.369692413763058 0.5667544118270674
1652496486.2143648 7.296773960450403 -17.359080721965285 0.5570395384755562
1652496486.6144924 7.1212141796115915 -17.287347124895287 0.5583476165408944
1652496487.0145276 6.963046107377257 -17.204169190520005 0.5548998838781849
1652496487.414595 6.766964719271891 -17.091323456267524 0.5484900056147294
1652496487.815876 6.556132635660232 -16.96272749147937 0.5445572660672099
1652496488.214611 6.345775024759859 -16.822974686768177 0.5427932122578997
1652496488.61472 6.187452263105677 -16.72100089608649 0.5443299476853724
1652496489.0159853 6.059396249761836 -16.62504048657617 0.5443693734878968
1652496489.414693 5.928822066408479 -16.537692046012445 0.5448703743087867
1652496490.214733 5.685199777411923 -16.391989332828807 0.5400404232862407
1652496490.6147602 5.61885001383192 -16.355532441443756 0.5388790671889411
1652496490.6147602 5.61885001383192 -16.355532441443756 0.5388790671889411
