1652496039.1402748 5.3591076240931255 -2.894033491768284 0.05382469649035959
1652496039.540306 5.359314208149186 -2.8942542668963616 0.05369456436247416
1652496039.940294 5.359474332776809 -2.8944309460862216 0.053662315531554206
1652496040.3403125 5.359520460172664 -2.894486188283805 0.053689623604864734
1652496040.7402916 5.359527393080441 -2.894495873513299 0.053717898385679086
1652496041.1403017 5.359532715637777 -2.894507546096306 0.05375195503271518
1652496041.5403056 5.359179399747269 -2.894116354740898 0.053814464305868615
1652496041.5403056 5.359179399747269 -2.894116354740898 0.053814464305868615
1652496041.9403753 5.359266239241455 -2.8942156878867005 0.05384007045548961
1652496042.3398352 5.359270860442646 -2.8942276887602514 0.053870446146354445
1652496043.140029 5.359329055499414 -2.8942882273934685 0.05393012833358246
1652496043.5402055 5.359229333656666 -2.894165615599842 0.053970857627895163
1652496043.9402652 5.359433747935689 -2.8943837309830522 0.05394438219871889
1652496044.3403268 5.359260086596165 -2.894201407880465 0.053924590981886844
1652496044.7405133 5.3591487580542285 -2.8940834815743317 0.05389562905846762
1652496045.1407592 5.359165089769684 -2.8941056766513342 0.05385357357848386
1652496045.5408661 5.359023970455899 -2.893947403139907 0.053828520001625246
1652496045.9409525 5.3591507295978875 -2.8940985184369867 0.05377526629581625
1652496046.3409317 5.3592082795499225 -2.8941641093643655 0.05372888010316129
1652496046.3409317 5.3592082795499225 -2.8941641093643655 0.05372888010316129
1652496046.740928 5.359404602703447 -2.894373307180799 0.05367065083095063
1652496047.1409252 5.359461543467996 -2.8944262675311068 0.053629415788388035
1652496047.540928 5.359690542742587 -2.8946806487726544 0.05365389854462577
1652496047.9409335 5.3593617864977245 -2.8943274047477887 0.05378651655249611
1652496048.340902 5.359370352359754 -2.8943421240127956 0.05389037160070903
1652496048.7396863 5.359479879585231 -2.8944512595630485 0.05395613175392289
1652496049.1409602 5.359627096843097 -2.8946130279942883 0.05392904930989373
1652496049.5409188 5.359245592717658 -2.894187887510066 0.05392890694145769
1652496049.9408948 5.359543454396991 -2.8945208875750055 0.05386306748609154
1652496050.3408902 5.358899160867605 -2.8938218727790725 0.053883025981964594
1652496050.7408938 5.358902145758785 -2.893815622596913 0.05384266425626821
1652496051.1409035 5.3592370225336 -2.894182024410181 0.05376976033187936
1652496051.5421565 5.359175316071059 -2.894127010746951 0.05373646539814875
1652496051.5421565 5.359175316071059 -2.894127010746951 0.05373646539814875
1652496051.9409316 5.358977961401203 -2.893911720194089 0.053713335080215474
1652496052.3409193 5.359780372672343 -2.894775291698605 0.05365721902601961
1652496052.7409158 5.359738406968137 -2.8947379283212773 0.05372325963279356
1652496053.142194 5.359601918763954 -2.894584670421351 0.053805536203947846
1652496053.5421622 5.359840959832551 -2.894845418779031 0.053853155683524
1652496053.9408963 5.3598362485465545 -2.8948418719707876 0.05391949607303953
1652496054.7404225 5.359275226434486 -2.8942358388265372 0.05401119848646896
1652496055.1404228 5.359339250173579 -2.8943061086774 0.05393033241849016
1652496055.540395 5.359256756412856 -2.894212880371371 0.053864040334894725
1652496055.9404185 5.359145754220763 -2.8940917312514296 0.053801338048404146
1652496056.3404474 5.359377073155697 -2.894347068667839 0.05370409267118492
1652496056.3404474 5.359377073155697 -2.894347068667839 0.05370409267118492
1652496056.740451 5.3591659650718695 -2.8941224801471988 0.05374193474835237
1652496057.140451 5.359556475001337 -2.894544938506878 0.053807132076636954
1652496057.5403984 5.359745398157762 -2.8947462790423586 0.053894303542387834
1652496057.940395 5.359667442288368 -2.8946599875023504 0.05395657462976333
1652496058.3404064 5.359511191835468 -2.8944937220527596 0.053992909901287356
1652496058.7404125 5.359622434329446 -2.894611399866518 0.05401809363885701
1652496059.1404085 5.366074316129349 -2.9064727400398276 0.05174867103200853
1652496059.5404243 5.426689271295668 -2.974809432825095 0.05200471767579279
1652496059.940406 5.596255324802235 -3.1928237126096883 0.04527612027781103
1652496060.3403895 5.870899313575155 -3.543996071641914 0.0644114803193202
1652496060.740419 6.091198423713053 -3.847639583598505 0.08028567019085642
1652496061.1417289 6.271983223800745 -4.170140262116931 0.08823972633016108
1652496061.541721 6.464449797185069 -4.499400957769475 0.09294282785359248
1652496061.9417744 6.580453475795246 -4.812957458561373 0.09243144510664902
1652496062.7418644 6.528188263323245 -5.662542632953226 0.09421780844124539
1652496063.141832 6.458885365554333 -6.080933604699302 0.09179075955025345
1652496063.5418901 6.278775461469326 -6.4705635465180205 0.10307387632219722
1652496063.9419353 5.999299172592728 -6.84880139532209 0.11110406148106439
1652496064.342 5.7026643861403175 -7.2208175478307774 0.10986665614188473
1652496064.7420013 5.4573487812750585 -7.445871889016617 0.11162532894531502
1652496065.1421418 5.317178324794252 -7.5572750036115774 0.10447284125984546
1652496065.5421393 5.181620056487458 -7.664595552303322 0.09757712250526251
1652496065.9408865 5.011020953350009 -7.773358023546007 0.09925512079784632
1652496066.3409226 4.875507505517908 -7.904031202891626 0.09238375595370718
1652496066.3409226 4.875507505517908 -7.904031202891626 0.09238375595370718
1652496066.740932 4.792559067755699 -8.106664141967139 0.09557362300206712
1652496067.1421525 4.780635107364091 -8.401724282915122 0.1006439528501406
1652496067.5409167 4.8958148091717835 -8.855082061678129 0.11545022127802357
1652496067.9421582 5.023807391832539 -9.26295457818782 0.11557545741599312
1652496068.3396783 5.271592613795674 -9.597113848696637 0.12162276606093758
1652496068.7396965 5.631462771907338 -9.878082402842553 0.129895902342273
1652496069.1397443 6.056605295425036 -10.213044772769909 0.14360754792618968
1652496069.5396864 6.4922997760081245 -10.533163696191943 0.13685143864675825
1652496069.9396672 6.987297535288053 -10.86767605176061 0.1328656297147368
1652496070.3396668 7.477566641138303 -11.182968504597422 0.13506676755671387
1652496070.739762 8.008287160842213 -11.479170752107853 0.14770965454307233
1652496071.139796 8.47515259774369 -11.697952617517313 0.17003615946774137
1652496071.139796 8.47515259774369 -11.697952617517313 0.17003615946774137
1652496071.5398157 8.712694503128168 -11.765875313299485 0.16731962364673858
1652496071.9398952 8.958538646461713 -11.930667937616567 0.15608931955338923
1652496072.3399289 9.362100927964775 -12.333170643590435 0.17119648379038738
1652496073.1399002 10.246438041261449 -13.088176165619283 0.16886334144051307
1652496073.5399396 10.634154335543634 -13.432037150971173 0.16427287126867846
1652496073.9399264 10.992811339908277 -13.824597753260367 0.17324398733988633
1652496075.138714 11.98139789253677 -15.120588542486868 0.17624086794679905
1652496075.539909 12.28494165090343 -15.69588299188467 0.1775188213394981
1652496075.9399092 12.473348506379581 -16.07720310547755 0.16704199991373314
1652496076.3398945 12.646379475096323 -16.414540428082603 0.1648114489472734
1652496076.7399414 12.809736044405522 -16.760902362984815 0.1716238549543183
1652496077.1399348 13.035125363583974 -17.206444097472023 0.18235406369560808
1652496077.5398884 13.279146901967293 -17.74144108737674 0.17277453459828285
1652496077.9399378 13.538541738461344 -18.23462257680034 0.16630465268019662
1652496078.3399096 13.84010936623721 -18.70537585193847 0.1597112638985569
1652496078.3399096 13.84010936623721 -18.70537585193847 0.1597112638985569
1652496078.7399247 14.177879127024758 -19.20497264346431 0.17286652292593585
1652496079.1399324 14.50813079660915 -19.7124326360132 0.18913253381575662
1652496079.5398996 14.834011136621942 -20.230206980039146 0.18578805105788687
1652496079.939914 15.155120699237248 -20.770303143642074 0.18587387341566314
1652496080.7399292 15.753609963164646 -21.81392127910692 0.15996752725782154
1652496081.5398946 16.29132782128703 -22.846030845953855 0.14623194412842622
1652496082.3398912 16.827866753563136 -23.90204015213091 0.1579794125049051
1652496083.1399274 17.358697625762126 -24.95880652263185 0.15367146461990266
1652496083.539922 17.617855713031098 -25.486951884002 0.15360888387140786
1652496083.9399023 17.82138697624311 -25.915641941022983 0.1637454991028785
1652496084.3399065 17.825297405187026 -25.929204544586234 0.15532885609581865
1652496085.1398945 17.831950736364032 -25.92986057244847 0.1512662121273174
1652496085.1398945 17.831950736364032 -25.92986057244847 0.1512662121273174
1652496085.5399086 17.844846911894244 -25.951733089755464 0.1480343772697837
1652496085.9399312 17.963667203397954 -26.19715513722725 0.15044976010018957
1652496086.739301 18.354524859043906 -27.075210081037824 0.1483344084330913
1652496087.5405483 18.85324342349447 -28.13035077449115 0.14810033174163012
1652496087.5405483 18.85324342349447 -28.13035077449115 0.14810033174163012
1652496088.3393233 19.357689511225548 -29.178691028098182 0.13506914332986492
1652496089.1393244 19.879915076236752 -30.238007337914592 0.12306041378919141
1652496089.5393 20.126268279357962 -30.73759722091142 0.10872305138023503
1652496089.939281 20.36590098572539 -31.247965722550866 0.09672037205631989
1652496090.7405808 20.89003798098742 -32.274928831529984 0.09940466460174818
1652496091.1394062 21.129788318805804 -32.700447562055615 0.08942308972952606
1652496091.939412 21.424589603968673 -33.74342814798081 0.0780693782699412
1652496092.7394483 21.60070353027406 -34.62238766293216 0.034568585621157444
1652496093.1394212 21.68681913948982 -35.04394089445188 0.022563104967920133
1652496094.339439 21.983420897858053 -36.17677235481559 0.02707641258893989
1652496095.1394358 21.98555500213879 -36.86129031847577 0.0214797532063698
1652496096.741308 20.91668659171517 -38.75675935980195 -0.02665024258222881
1652496097.5413072 20.39025465183276 -39.25466429857738 0.004418171724438924
1652496097.9425588 20.234142069769195 -39.374466605651264 0.01262701374534364
1652496098.340181 20.110919662984593 -39.53531631777169 0.006735528319810169
1652496098.7414095 19.79813281519225 -39.90100117728334 0.0312173343221826
1652496099.1432445 19.402594357323174 -40.33829903201405 0.07132877081718297
1652496099.5431736 19.016599255534732 -40.677642257888095 0.07715793134128535
1652496101.1406898 16.80169089267981 -41.5383777666197 0.10876717340625036
1652496101.5406747 16.21820360764181 -41.60074427413992 0.09085137150778222
1652496101.5406747 16.21820360764181 -41.60074427413992 0.09085137150778222
1652496101.940786 15.642242815534406 -41.65654229059195 0.06622851607584429
1652496102.7408285 14.456019560865151 -41.66957013067298 0.06756649641145535
1652496103.540865 13.246751190805831 -41.580013416935785 0.0677745112687615
1652496103.9408 12.647511137168195 -41.5187890436656 0.06705024393378256
1652496104.3407884 12.343937664733872 -41.50433479939718 0.07540862589164843
1652496105.14083 12.353811859531369 -41.49281220138933 0.0561718865464807
1652496105.5407946 12.292343060072987 -41.48647132556021 0.06112657619074907
1652496105.9407969 12.305132793267529 -41.48510479065309 0.05730221993435275
1652496106.340814 12.304354827280982 -41.48507249638921 0.05730719732561779
1652496106.7408378 12.305521860894718 -41.48508526578914 0.05735730912779652
1652496107.140797 12.305846455950707 -41.48507085632076 0.05724993007602569
1652496107.9407787 12.305955277784612 -41.48556016489853 0.057340662299209144
1652496107.9407787 12.305955277784612 -41.48556016489853 0.057340662299209144
1652496108.340925 12.305819102135235 -41.485202609432754 0.057291212719252194
1652496108.74094 12.305766392442887 -41.4849367137569 0.05723507929356064
1652496109.1409159 12.305960681845207 -41.48543391751459 0.05726898678337239
1652496109.5409229 12.305852205486548 -41.484821369908616 0.05727903737191131
1652496110.3409262 12.30594282692584 -41.48510617195407 0.057117905251312995
1652496111.1409094 12.305859984448343 -41.48519954465943 0.05702253829781384
1652496111.5409005 12.305973287676977 -41.4853155477193 0.0571392608410799
1652496111.9408844 12.305846424420025 -41.485079034850536 0.057025783872018565
1652496112.3408751 12.305836766557757 -41.48515319816631 0.0569438463984851
1652496112.7407954 12.305560457174114 -41.483944282133734 0.05701484361305431
1652496113.1407933 12.305515299534012 -41.48398651003318 0.05693893735001199
1652496113.5408447 12.305479935708828 -41.483675550367444 0.05697506284715148
1652496114.7408361 12.305534905524063 -41.48372304001369 0.05697025987100851
1652496115.1408026 12.306976860526841 -41.4853573094756 0.05679507114451554
1652496115.1408026 12.306976860526841 -41.4853573094756 0.05679507114451554
1652496115.5408275 12.306095019651082 -41.474831870506684 0.05457468965320489
1652496115.9409034 12.017345830402643 -41.39946214383175 0.049675130450852256
1652496116.3409657 11.500299532390972 -41.346823703357934 0.058978498413902125
1652496116.740914 11.129087959246174 -41.27256062161242 0.0682940558206186
1652496117.1409092 10.809104100250888 -41.29928510701741 0.06418627469608323
1652496117.5409174 10.23347716912087 -41.37981949807959 0.08806275790137003
1652496117.9409494 9.861254076772148 -41.31615223760711 0.08473270711794878
1652496118.3409536 9.543673645120567 -41.464155036443366 0.07400321120964465
1652496118.7409172 9.078904695585152 -41.76105839717252 0.07811763198497956
1652496119.140909 8.640285130460509 -42.02980722350875 0.07836409967325914
1652496119.5409114 8.30270317176171 -42.27680791326717 0.08516385428282452
1652496119.9409163 8.088847331531131 -42.49679815600675 0.08652762753389737
1652496120.3409002 7.898812169349744 -42.83091779199803 0.08232622205271223
1652496121.1414168 7.352752489078803 -43.882595269268634 0.08779135874997096
1652496121.5414295 7.185772453335231 -44.275541050373874 0.07330917658747177
1652496121.9401264 7.109467354107357 -44.54187514925516 0.07565638275465447
1652496122.3414397 7.106588202723451 -44.5296784320229 0.06279239349196514
1652496122.7402 7.109463426669912 -44.533799222530604 0.06494671750011743
1652496123.1401577 7.1112650031134095 -44.532673253148275 0.06449027430558424
1652496123.941398 7.068307267339499 -44.963930648739684 0.05902337042813077
1652496124.3401449 7.030373816184838 -45.341481897334326 0.054210598524719544
1652496124.7414067 7.069514824650861 -45.86642960615201 0.055511341059194586
1652496124.7414067 7.069514824650861 -45.86642960615201 0.055511341059194586
1652496125.1402252 7.080692857750082 -46.43446254354978 0.06423843643243465
1652496125.5401912 7.100289740861291 -46.771031972432844 0.048325687927806504
1652496126.3414347 7.426530658018626 -47.555831410528825 -0.018204762905868588
1652496126.7426856 7.4787012495602845 -47.70914501076644 -0.018037227848821835
1652496127.1418571 7.547727309180624 -47.87467891181848 -0.012409724518815446
1652496127.5420358 7.703464580046129 -48.257762076978004 0.020776449402484187
1652496127.9408224 7.916172001596104 -48.69191135856507 0.037119574805522526
1652496128.3407822 8.117689979382153 -49.11494763317763 0.025753236571362137
1652496128.7407875 8.288612853826425 -49.46705195475596 0.029549340225592025
1652496129.1407707 8.407806195007018 -49.68870249286257 0.029390731290855454
1652496129.5407639 8.482765307554276 -49.885632528524184 0.021252532557287984
1652496129.5407639 8.482765307554276 -49.885632528524184 0.021252532557287984
1652496129.940805 8.615814006200289 -50.17850286669218 0.015023637848955662
1652496130.3408167 8.789779028689777 -50.4952157253854 0.014971577668374925
1652496130.7408 9.007962569268686 -50.79193041937506 0.012043498768713357
1652496131.1408145 9.267503198225382 -51.05873237639844 0.007097660830424235
1652496131.5407867 9.405462176583677 -51.19537097998852 0.008944024957617203
1652496131.940827 9.37968471962194 -51.19155218807879 0.0026339807863030584
1652496132.3408191 9.486976590708613 -51.28846969749804 -0.0019258495443541523
1652496132.7408772 9.667221333470003 -51.430180661031606 -0.0008266436544658862
1652496133.140815 9.947113131252873 -51.62637681672605 0.0005179488799443299
1652496133.540766 10.38483315937762 -51.841121300967515 0.006824075183166134
1652496133.940786 10.964632525615334 -52.061689130368116 0.017979309002871813
1652496134.340782 11.53708153094056 -52.242212668799866 0.023198625034359044
1652496134.7408633 12.033750774501282 -52.42485790301986 0.012399742384130052
1652496135.1409078 12.50762149625856 -52.7027579455378 0.0004085478473499493
1652496135.94099 13.53684766737033 -53.26766185938866 -0.013474348507904021
1652496136.3409007 14.046682932405568 -53.553363451996184 -0.01318167012812782
1652496136.7409506 14.520597774520182 -53.842215809068975 -0.013056958821202336
1652496137.1409178 14.994643632379182 -54.12668684227105 -0.009746548498132335
1652496137.5409145 15.472749959765789 -54.40044495057142 -0.004254817878606987
1652496137.9421303 15.922693352239303 -54.71710716473341 0.0033860262637216976
1652496138.3408027 16.24194063514495 -54.97444026397477 0.014935937279498046
1652496138.740789 16.47869442547296 -55.154211919618604 0.0125654921737402
1652496139.1402938 16.75219546873639 -55.361341471516795 0.006407640855444596
1652496139.1402938 16.75219546873639 -55.361341471516795 0.006407640855444596
1652496139.541741 17.13429003420434 -55.723882077474904 0.0016055002147083997
1652496139.9404502 17.577339538907175 -56.143798134888215 0.004849575319786581
1652496140.340427 18.014184660256532 -56.5044675419368 0.013473253319819078
1652496140.7404263 18.32493682995635 -56.65154021104559 0.014203050497734016
1652496141.1404314 18.573102193058943 -56.836811144668495 0.008628807220814771
1652496141.5404487 18.907501017165224 -57.1782673769861 0.014516158046755878
1652496141.9404106 18.982141166981528 -57.48888281065483 0.014544767317586083
1652496142.340412 18.86533006867008 -57.96044488728079 0.002969045961697059
1652496142.7404237 18.676412952387544 -58.534291552306456 0.0032978961580069632
1652496143.9417124 18.438780970869715 -58.971214932328586 -0.009892438325749597
1652496144.3417625 18.430503951429316 -59.28612755910215 -0.022392565169743972
1652496144.741899 18.35013116015979 -59.77439945552257 -0.0017915233234059857
1652496145.1437707 18.34037674003435 -59.850247881026945 -0.03571895834808875
1652496145.5437317 18.292920643325367 -60.36353104282978 -0.027433002128623596
1652496146.3424284 18.160540983849053 -61.17572626830808 -0.049747625159405284
1652496146.7411606 18.151990913799956 -61.64400985672573 -0.04891210234323767
1652496147.5412974 18.21454501287988 -62.778461812176275 -0.0482842692577668
1652496147.9412556 18.29836587462573 -63.520844559996284 -0.0375678066953008
1652496148.3413184 18.38639787112585 -64.02097387584286 -0.025868546151505856
1652496149.141288 18.58480622339603 -64.91280008648889 -0.02861720165048065
1652496149.540128 18.705448997586856 -65.33493683355405 -0.028759149216281032
1652496149.9414532 18.814098565771253 -65.72945200242467 -0.02801363531193507
1652496150.3402855 19.072384792966492 -66.16870963732703 -0.023809102523542014
1652496150.7415628 19.40147897307216 -66.62818821921518 -0.01943837091764672
1652496150.7415628 19.40147897307216 -66.62818821921518 -0.01943837091764672
1652496151.5420682 20.16621789483407 -67.52131210643246 -0.013994495716231403
1652496153.1408966 21.206887701364415 -68.62327838893498 -0.007364161011314707
1652496153.9411688 21.449608928165453 -69.19143796933058 -0.009183253641563471
1652496154.7411735 21.613692308918942 -69.74981761481482 -0.010327938941004644
1652496155.141167 21.69225952838495 -70.01362442095122 -0.01116408539750735
1652496155.541151 21.782265152631204 -70.3017390507598 -0.00874538121479268
1652496155.9412742 21.77561897767775 -70.63135787305377 -0.0036437465148176917
1652496156.7412915 21.590172562444202 -71.30818051073437 -0.01080781778776957
1652496157.1412964 21.61528857459495 -71.67077758808513 -0.012945035727749743
1652496157.541405 21.627562180232847 -71.93597206813405 -0.019064552552877534
1652496157.541405 21.627562180232847 -71.93597206813405 -0.019064552552877534
1652496158.3414454 21.225692523775436 -72.22961527788513 -0.02727558961523885
1652496159.1414344 20.782114991307424 -72.3404412024366 -0.040362436321040085
1652496159.5414085 20.608492144708535 -72.3329155589923 -0.04711392094679501
1652496160.3414083 20.33303238435472 -72.12050651986434 -0.057085850896180956
1652496161.1414378 19.50601580530545 -71.25794645572782 -0.04202835420196599
1652496165.1428647 16.856878967372744 -66.43279746203424 -0.07799022671644618
1652496165.5415025 16.71171178080187 -66.1065048601114 -0.0730383993753827
1652496167.1409912 15.646409189957305 -64.05937004693673 -0.08619496070592153
1652496167.1409912 15.646409189957305 -64.05937004693673 -0.08619496070592153
1652496167.5409238 15.331222159360943 -63.580880463150386 -0.09259036799796444
1652496170.7429967 13.448625943079547 -59.5967848836521 -0.08922395073232303
1652496171.9427373 12.54488404617806 -58.47687566398529 -0.09874726881974266
1652496172.3426223 12.177621948740896 -58.15627438569192 -0.09029848795748596
1652496172.7426503 11.802480623821518 -57.89535955535741 -0.09455313221259215
1652496173.1426458 11.378157428614422 -57.67596021364027 -0.09475084386046806
1652496173.542633 10.891632409250892 -57.51986762687591 -0.08629710331619628
1652496173.9426425 10.392248184280062 -57.431709980569124 -0.09782888881338392
1652496174.3426597 9.896635816679934 -57.44579331260118 -0.11013514243459482
1652496175.1426454 8.979659390645825 -57.72837770216109 -0.14000521396886284
1652496175.542631 8.586147155279752 -57.97861373542428 -0.1524394167011202
1652496175.9426327 8.279782061518242 -58.34914438246666 -0.15919057688632998
1652496176.3426404 8.022524375160495 -58.790015436204094 -0.15273893050556003
1652496177.1426148 7.75130920946304 -59.76488877474212 -0.16919590288632508
1652496177.9426334 8.136105185045759 -60.67719545568032 -0.1768726272773084
1652496178.3426363 8.473493463357393 -61.04641777085906 -0.1730191676990649
1652496178.7426648 8.911915918468027 -61.30008786929839 -0.16615518411781355
1652496179.1426268 9.408720256551854 -61.46623637821915 -0.157669071407325
1652496179.542642 9.941206564095538 -61.54418718572714 -0.14825788478428326
1652496179.9426458 10.470179000183302 -61.48635505498631 -0.14052664507992446
1652496180.3426561 10.967062624121775 -61.33239130958458 -0.141941184001261
1652496180.7426412 11.364329750815413 -61.117165692961876 -0.13777150970098956
1652496182.3428648 12.473331735664939 -59.32720702822219 -0.10034000320943942
1652496182.7427456 12.517266039341854 -58.80581990135404 -0.10149080894619478
1652496183.141356 12.49068512244343 -58.480547122276114 -0.0960036698842393
1652496183.944121 12.089756882053733 -57.267398533964574 -0.07581876344609062
1652496184.3440013 11.754237567108138 -56.84869698638332 -0.07726266169192703
1652496184.7427702 11.339868991528425 -56.484079811217235 -0.06083315833507641
1652496185.1427515 10.858266959790736 -56.215255305746425 -0.0626798276566245
1652496185.5426245 10.330219968845455 -56.03431171622372 -0.06972853242075822
1652496185.942625 9.767784184147237 -55.949417893343124 -0.08136191251064573
1652496186.3426294 9.204591974607954 -55.96167699966031 -0.10111646714261041
1652496186.7426245 8.654154193361032 -56.079411190188786 -0.12585141495802699
1652496187.1426282 8.136408211228947 -56.264810943740535 -0.14424753094887643
1652496187.5426178 7.651510016538021 -56.54786250361681 -0.1677927822098388
1652496187.5426178 7.651510016538021 -56.54786250361681 -0.1677927822098388
1652496187.9426441 7.259636928581163 -56.96170461438533 -0.1854716571353207
1652496189.543866 6.168146171713252 -59.048464032121174 -0.1358419950385255
1652496189.9439094 5.944206328045929 -59.6076727275483 -0.12882361471411136
1652496190.3438706 5.766482577106734 -60.18504140885287 -0.12933517799912203
1652496190.7425137 5.636100148533343 -60.77162156215316 -0.13448217904892312
1652496191.1437247 5.542918755975203 -61.37517292477621 -0.14054301279355463
1652496191.5436125 5.489656900336117 -61.97413238517056 -0.14754061983426414
1652496191.9448607 5.471561704481404 -62.60206912490891 -0.15548613086023327
1652496192.343496 5.4791872067164 -63.21556399154812 -0.16242365025026473
1652496192.7433999 5.490777713425178 -63.78315361332516 -0.18204533374167292
1652496193.1421404 5.531262579566098 -64.36828255278782 -0.19525534869179118
1652496193.5421271 5.538007612142692 -64.89637892332831 -0.19895040739414882
1652496193.9432654 5.4837940078704435 -65.41796834582524 -0.2028654532744828
1652496194.7432604 5.287102952742375 -66.40889656132066 -0.21347982745177013
1652496194.7432604 5.287102952742375 -66.40889656132066 -0.21347982745177013
1652496195.1432712 5.2022651242584566 -66.85705595060793 -0.2273971517413343
1652496195.5432456 5.019111599980187 -67.33376435561229 -0.22979900891930155
1652496195.9431252 4.8047811794117905 -67.86468269540462 -0.1974771210252972
1652496196.3430076 4.525451207086919 -68.41798031100521 -0.14617117758179277
1652496196.7430234 4.244808227123684 -68.98859017840775 -0.11817058102407019
1652496197.1429944 3.989873180140103 -69.52472696415181 -0.12218059395505954
1652496197.5428746 3.7397546470398133 -70.06900555915419 -0.11977889208186177
1652496197.9427562 3.4704922821882853 -70.62166672007511 -0.1139123304309233
1652496198.3427393 3.2021047075832065 -71.15573139838439 -0.11601969787441513
1652496198.7426174 3.0056446704471895 -71.47956310387539 -0.10265417415767158
1652496199.1426208 2.969193791881077 -71.59627905519277 -0.12501255861285387
1652496199.5426278 2.8767070751817823 -71.77100165055398 -0.11414118843480464
1652496199.5426278 2.8767070751817823 -71.77100165055398 -0.11414118843480464
1652496199.942648 2.886691483862423 -71.75351910686129 -0.12329837837183616
1652496200.3426247 2.886793181721101 -71.75478088787177 -0.11786909022254943
1652496200.7426739 2.8447202531823716 -71.868059602107 -0.1268300248074078
1652496201.1426508 2.588188505443277 -72.22725287691928 -0.1252015782010666
1652496201.5426362 2.3548285276900724 -72.58620489666322 -0.12940998309533142
1652496201.9426317 2.2114389138221817 -72.94927540559218 -0.13507488851224314
1652496202.3426473 2.0294312896679525 -73.35602916776749 -0.12356479292817624
1652496202.7426453 1.8881961744809903 -73.72833626558109 -0.10375184820481853
1652496203.14262 1.6991000889861336 -73.89069501999606 -0.11990320866249038
1652496203.5426278 1.6545963716295216 -74.14505363420518 -0.11046847164000545
1652496203.942633 1.5352555633256433 -74.33805446591008 -0.12856845542899703
1652496203.942633 1.5352555633256433 -74.33805446591008 -0.12856845542899703
1652496204.3426428 1.7213712650566908 -74.68892566205757 -0.13706370590825673
1652496205.1426492 2.3422496013714085 -75.7341566650163 -0.1507527496992428
1652496205.5426466 2.6790251792145323 -76.18770667561913 -0.1798655539509777
1652496206.342632 3.3864886535954835 -76.93370352638834 -0.22493973732344258
1652496206.7426753 3.7163108698626264 -77.20648379357448 -0.24933287768710688
1652496207.1426392 4.091204777535678 -77.38729802895523 -0.2621213382413018
1652496207.5426419 4.507695227465527 -77.53109094483573 -0.2792265646961668
1652496207.9439023 4.979864666085744 -77.61242211569825 -0.2997845358724495
1652496208.3438861 5.552471817751284 -77.62150679553488 -0.32092470896057884
1652496208.7426324 6.1285707523731805 -77.57702423090096 -0.345058556370654
1652496209.1426291 6.659806310706701 -77.5246343215291 -0.3634889016803353
1652496209.5426195 7.092708547878766 -77.48772607990962 -0.366594269177446
1652496209.9426262 7.520900580222692 -77.48331497691638 -0.3735066572031656
1652496210.3426273 7.953088661260134 -77.49694119843053 -0.3750999846658165
1652496210.7426727 8.37088713183188 -77.55106848960118 -0.387814552593232
1652496211.1426334 8.817552655146157 -77.65065941821926 -0.385886685984773
1652496212.3431196 9.893395726856435 -78.14333108729102 -0.3967204300897262
1652496212.7429879 10.243136087864011 -78.60760549123422 -0.3911935199375885
1652496213.142862 10.538920636497254 -79.06377620481396 -0.3978963100955027
1652496213.142862 10.538920636497254 -79.06377620481396 -0.3978963100955027
1652496213.9427814 11.191383394678148 -79.85725166798184 -0.3960124441529239
1652496214.3427706 11.560303353648383 -80.32382322262117 -0.3939316179292646
1652496214.7427669 11.884086003093707 -80.76253523402713 -0.3942086498988695
1652496215.1427605 12.17300179462946 -81.14104289614319 -0.3940425227530101
1652496215.5427883 12.745752976887001 -81.85089940141604 -0.4011757150681261
1652496215.9427607 13.67036163134265 -82.92107900772567 -0.32490766301339064
1652496216.3427532 14.315913066070127 -83.67122221107378 -0.27228634676679286
1652496216.7427356 14.665311935837124 -84.02197758249844 -0.3103458636587412
1652496217.1426368 15.011524732215243 -84.35485787873903 -0.32058319929843665
1652496217.542666 15.40097188197311 -84.69635651347983 -0.3078286040618444
1652496217.9426272 15.815180068988465 -85.03821914248685 -0.2924367657857944
1652496218.3426354 16.2274650121577 -85.3748773406663 -0.2720940163172685
1652496218.7426517 16.677479780234055 -85.69121473970513 -0.2639336115119745
1652496219.1426184 17.090585439149653 -85.93926372126607 -0.2508368785816138
1652496219.543499 17.39249722196714 -86.17402528921195 -0.2502334535838238
1652496219.943424 17.653942052038996 -86.43177834339775 -0.24238523566200826
1652496220.3434157 17.88914773365827 -86.69377491089698 -0.2311803212624538
1652496220.3434157 17.88914773365827 -86.69377491089698 -0.2311803212624538
1652496220.7434323 18.06564215005555 -87.00110662465312 -0.20502869828958092
1652496221.1434362 18.226775609877524 -87.33450162014893 -0.16004292856923152
1652496221.5434244 18.32796418923537 -87.7049790437415 -0.13243930317324937
1652496221.9434125 18.376068734193744 -88.09232899712877 -0.1149919747592128
1652496222.34342 18.347862854234222 -88.49491082746285 -0.11240193573414631
1652496223.543424 17.718773362546383 -89.47847919790706 -0.1308483890398569
1652496223.94356 17.398971987538655 -89.7177584189013 -0.12993669888431625
1652496224.3437517 17.03414856023193 -89.81425456794992 -0.1334082279014645
1652496225.1437058 16.251339573596198 -89.26901229743287 -0.14825846886241018
1652496225.1437058 16.251339573596198 -89.26901229743287 -0.14825846886241018
1652496225.5436928 15.89488434483281 -88.89287527571123 -0.15603731043187613
1652496226.343679 15.3090909020036 -88.29023580060542 -0.17862374346966103
1652496226.7436936 14.920077152398765 -88.05865692111384 -0.1946039563497718
1652496227.1424384 14.59246259435687 -87.84839480100656 -0.2150854965175245
1652496230.3421729 16.962559799308476 -84.15200951702731 -0.25957424480831126
1652496231.142502 17.894363621222872 -83.37945104061512 -0.2547225780553383
1652496231.5412753 18.30986541809532 -83.05555983857508 -0.26957973731777535
1652496231.941296 18.496082618590304 -82.90377357591694 -0.2873362420986937
1652496232.3412971 18.83008515000321 -82.6131815609672 -0.25067746416683634
1652496232.7413135 19.224249901976783 -82.19612890898506 -0.22171203160016706
1652496233.1425395 19.53550072961426 -81.8350007918033 -0.19627230625397307
1652496235.143148 20.711914593368405 -79.19180248812576 -0.16568449775225275
1652496235.5431442 20.74134256754256 -78.62354648735327 -0.1448045639769987
1652496235.94082 20.6930561677871 -78.06267931928264 -0.14162714044602276
1652496236.340906 20.600641424733915 -77.52888641979139 -0.13334491364248452
1652496236.7415173 20.488710748007563 -77.01156018027332 -0.12795401130671402
1652496237.5443757 19.755217654902424 -75.90119574523162 -0.11937617440706594
1652496237.9429917 19.464036726142382 -75.51686664185304 -0.12066952712409418
1652496238.3428717 19.072181460212555 -75.02847831756019 -0.10272069964564196
1652496238.3428717 19.072181460212555 -75.02847831756019 -0.10272069964564196
1652496238.7427666 18.69019074777729 -74.5848921365938 -0.10342689537480654
1652496239.5415208 17.910771885506094 -73.73132933737223 -0.1122925288446387
1652496239.941719 17.540500478182963 -73.34284698789449 -0.12927383189014258
1652496240.3416812 17.13586715415793 -72.96940836079736 -0.13870756315965915
1652496240.7417028 16.732271569908196 -72.61173500413993 -0.1448970226794717
1652496241.1417165 16.327775894483736 -72.26992007121092 -0.15803162987242753
1652496241.5417035 15.886765873298685 -71.90933703542638 -0.15213970234471702
1652496241.9417393 15.416187645432823 -71.55448457036726 -0.15289102703946866
1652496242.3417244 14.946420076064982 -71.22260560339265 -0.15211295951781784
1652496242.741703 14.610719044540396 -71.04126312446714 -0.1530441654847023
1652496243.1417072 14.424123317984163 -70.900306884262 -0.16031667549182604
1652496244.341827 14.09547511571104 -70.5597202233857 -0.1626175174813042
1652496245.1418247 13.552875523413762 -70.0218907005124 -0.1639338469741793
1652496245.5418308 13.143302343000471 -69.62147311552697 -0.15392652048207683
1652496245.941952 12.764781517605147 -69.22994083630441 -0.1478628855887999
1652496246.3420603 12.425367702581138 -68.84584831695486 -0.15831433973336156
1652496246.7409081 12.080801800492663 -68.43837663119062 -0.158733394577462
1652496247.1409006 11.744830460508489 -68.02837288638122 -0.15355677294577086
1652496247.941267 11.122849764172601 -67.12119360461936 -0.15713372208831844
1652496249.1412365 10.266299994333778 -65.66213268644081 -0.1820016249269233
1652496249.5411153 10.014434789877706 -65.17812093861403 -0.18558006683963707
1652496249.9411325 9.774450038105988 -64.67890493341643 -0.1817840964088167
1652496250.7411513 9.296396566571346 -63.66809914603766 -0.16777861728817345
1652496253.9426858 7.687484219954531 -58.7184635481323 -0.15631654515212745
1652496254.3427167 7.567343116088104 -59.02544163146736 -0.1591867950648732
1652496254.3427167 7.567343116088104 -59.02544163146736 -0.1591867950648732
1652496254.7427378 7.453313969840048 -58.62609580639163 -0.1723691645509971
1652496255.1427307 7.32052941142129 -58.1097840430415 -0.1776560101522805
1652496255.5426886 7.200200313030983 -57.60661991260809 -0.17407026851110186
1652496255.9426622 7.124104469981562 -57.16311303996172 -0.1802831765983131
1652496256.3426416 7.065764762050145 -56.73404940701328 -0.19131309944379637
1652496256.742644 7.0259591638431385 -56.27595886377428 -0.18243898144317122
1652496257.1426995 7.011686902315894 -55.83095966218856 -0.16859894239971734
1652496257.542685 6.999296529759487 -55.432847401984446 -0.16774973383157898
1652496257.9426677 7.004011135889858 -54.98478292983358 -0.15850467808978064
1652496258.3426242 7.0456690410094325 -54.46737023056043 -0.12500791680039813
1652496259.1426704 7.091368467862694 -53.88182065622793 -0.10640254308791663
1652496259.5427375 7.0811538830176755 -53.63698932244658 -0.10293249718274061
1652496260.3426323 6.859841401541724 -52.78740207333598 -0.09370977827248461
1652496260.7426367 6.701909342000318 -52.32779295405713 -0.08498713769820243
1652496261.1427028 6.507370012389133 -51.89347419156048 -0.08335799367671942
1652496261.5426545 6.262684875257955 -51.484965052489905 -0.08600050631896239
1652496261.9433002 5.963046244638258 -51.10351731759312 -0.08933616799818805
1652496262.3432662 5.602359138080297 -50.76598474783877 -0.08616585711200836
1652496262.7432618 5.2037620854711655 -50.49766840689986 -0.08046650426136015
1652496263.1432543 4.720112660169491 -50.297998431302894 -0.0734655824949601
1652496263.5431368 4.10929963193167 -50.11878943060347 -0.051541422357548605
1652496263.5431368 4.10929963193167 -50.11878943060347 -0.051541422357548605
1652496263.9431603 3.535474161858831 -49.95224058725317 -0.03723325201457223
1652496264.3431296 2.9379387684474256 -49.829524479592116 -0.025818030732020325
1652496264.743178 2.319032331174263 -49.70679284490734 -0.009434109502284238
1652496265.5434263 1.5889414741789825 -49.547044960256144 -0.03269145567886661
1652496265.94343 1.3558148648221255 -49.504805666344026 -0.02891377839928405
1652496266.7433822 0.870084153667392 -49.37975905277217 -0.02554627946125748
1652496267.1433988 0.5713762172437331 -49.05541615535891 -0.03429096359268924
1652496267.543435 0.27732779004273134 -48.69994349642838 -0.052533068777104064
1652496267.943408 -0.017449000922008295 -48.46063463756988 -0.048300703415987745
1652496268.3434079 -0.26143403960764466 -48.171831115000536 -0.020267270608311683
1652496269.943437 -0.18872478715240426 -46.74043454772485 -0.020861081097155232
1652496270.7434497 0.6251083359690472 -45.92968662428199 -0.03501777897894881
1652496271.5434198 1.4947261093902053 -45.18585539925937 -0.06186029091891987
1652496271.9434028 1.9150579648737622 -44.866703598236185 -0.06617288909420088
1652496272.3433862 2.330812997458848 -44.57352636525784 -0.06793457809051917
1652496272.743376 2.7948864916810834 -44.28706899562686 -0.06477911277841991
1652496272.743376 2.7948864916810834 -44.28706899562686 -0.06477911277841991
1652496273.143332 3.2904600816469465 -43.96697630834911 -0.047076836798482236
1652496274.3434093 4.601500758892582 -42.9814803118503 0.01616441153917758
1652496274.7433817 4.704894842550965 -42.70068982471443 0.017632649647036758
1652496275.9434004 5.419702601942699 -42.38379199374055 0.006097301903580377
1652496276.7434058 5.666335439197164 -42.15640327934091 0.018366011560086326
1652496277.543381 5.940944846123873 -42.62057042687158 0.018855081208534796
1652496277.543381 5.940944846123873 -42.62057042687158 0.018855081208534796
1652496277.9434104 6.12824508858885 -43.095075250881756 0.044654064771292246
1652496278.7431345 6.385562511112813 -43.56465556893774 0.052697160726171255
1652496279.1432161 6.30536829640052 -43.91564865412445 0.043991678164070736
1652496279.54315 6.107950145706582 -44.43773441437681 0.04412456586818109
1652496279.9431565 5.902506230818668 -44.966143168864285 0.041445575271698454
1652496280.3431606 5.660364538178886 -45.4808381575894 0.034226716773677335
1652496280.7431366 5.403836229541268 -45.94185836698894 0.006061252558187624
1652496281.5431554 4.802662964477815 -46.849487741510096 -0.039740978181487696
1652496281.944424 4.613834255218915 -47.23432245607783 -0.03398275558669156
1652496282.3444235 4.569609710693786 -47.48352706073836 -0.03480282048345168
1652496283.1431732 4.3118402721302775 -47.7913469562894 -0.036350280248570455
1652496283.5443966 4.065773390487479 -47.8893150179615 -0.03231962626526147
1652496283.9444046 3.7990530990902567 -47.95713743276187 -0.026270144097763015
1652496284.3457386 3.5127175410432887 -47.986339369950315 -0.02480844412629929
1652496285.1432743 2.9299525993108553 -47.84560088025874 -0.02916854998088214
1652496285.9432626 2.3034396874731335 -47.649216445609405 -0.026078666677582685
1652496286.343256 2.003184461950129 -47.56433933292627 -0.022641131821053206
1652496286.743171 1.7352907423359536 -47.377744627352314 -0.01976253159927216
1652496287.1431522 1.4939051894310715 -47.16333053546853 -0.021581541507333823
1652496287.1431522 1.4939051894310715 -47.16333053546853 -0.021581541507333823
1652496287.543188 1.4033341117036642 -46.904794963717414 -0.03588071258787123
1652496288.743637 2.1007244494212127 -45.48591533016918 -0.0601497330719058
1652496289.1449342 2.3616557894412544 -45.16825045289059 -0.07600595520405395
1652496289.543699 2.7538497586123274 -44.7554741674036 -0.06735438879717942
1652496289.9437106 3.1692245581540703 -44.37181910494608 -0.04923516358507479
1652496290.3436854 3.6427605495849846 -44.02390090577232 -0.027120736317761407
1652496290.7436981 4.122217314018677 -43.70447250502938 -0.0033281453730322763
1652496291.1436672 4.58081373691406 -43.403631998927246 0.00857951827660336
1652496291.5437865 4.949410394304813 -43.18085219046076 0.01538151551937933
1652496291.9425375 5.278321631751471 -42.92108377400445 0.013055884957095365
1652496291.9425375 5.278321631751471 -42.92108377400445 0.013055884957095365
1652496293.143703 6.581889851372333 -41.90901661748133 0.04778567035769005
1652496293.5437002 7.090589024952678 -41.563046405564414 0.07133115826837161
1652496294.3436325 8.071785926571955 -40.925809782496486 0.07702506322794517
1652496295.1436179 8.961226314419665 -40.296859439029085 0.06842350421942212
1652496295.9436848 9.814901370185684 -39.57824016237569 0.07840600803638714
1652496295.9436848 9.814901370185684 -39.57824016237569 0.07840600803638714
1652496297.943303 11.040426905254535 -38.0744242537805 0.06383499640738965
1652496299.5417259 10.440030393645124 -36.551390836364114 0.0705501258616868
1652496300.3417313 9.663182102834384 -35.71039150987217 0.08531205293648647
1652496301.1419713 8.877393845183462 -35.02652263533764 0.06754247298581967
1652496301.94206 7.989930925023335 -34.48568935193512 0.06858997456031968
1652496303.142011 6.409967432686383 -33.856107778641785 0.06757845993199185
1652496303.142011 6.409967432686383 -33.856107778641785 0.06757845993199185
1652496303.542037 5.833075382997074 -33.678065389408815 0.06026842765709883
1652496303.9420085 5.281400560158394 -33.524964647512206 0.03710688142333857
1652496304.7421794 4.2797586651308 -33.260406514386716 -0.012064370515827205
1652496305.1421797 3.754414870661594 -33.14783571979992 -0.00967110113660391
1652496305.5421762 3.160385109284654 -33.042078306914895 0.01887035462637815
1652496305.9421937 2.7162335809958416 -32.851163988546 0.019895416893201345
1652496306.3422146 2.3324045983079413 -32.77281754305551 0.016151549594801473
1652496306.7421303 1.9708792318176753 -32.783121777311095 0.010107237931266111
1652496307.1420255 1.599353820256896 -33.03289936324852 0.00293300310140282
1652496307.542013 1.1345009354842075 -33.388889393702314 -0.003037322261552511
1652496307.542013 1.1345009354842075 -33.388889393702314 -0.003037322261552511
1652496307.9421842 0.6854306432938246 -33.77350547336221 -0.004363975029895328
1652496308.342169 0.2342954754121429 -34.166176276050756 -0.0008233178413373232
1652496308.7421467 -0.2060949308520037 -34.5491870585871 2.234439691806145e-05
1652496309.1421492 -0.627175669769434 -34.95716268768185 0.005242623181891837
1652496309.5421295 -1.0358861860065183 -35.38392999107675 0.013736650618557278
1652496309.9421365 -1.4448720300371818 -35.82312637330788 0.011612998298729249
1652496310.3423018 -1.8500172393441572 -36.274275907243904 0.017756268254935814
1652496310.7423003 -2.2582284972396085 -36.73068226089085 0.017787025560489056
1652496311.1422737 -2.638068998951482 -37.16838890501661 0.012995980049852973
1652496311.542281 -2.965700974600667 -37.57957093152005 0.0030944516278763046
1652496312.3422592 -3.526857587567094 -38.17318838921156 -0.0024691287204758883
1652496312.7423246 -3.8382650082216108 -38.41532415316671 -0.00482692093460918
1652496313.1423001 -4.168789736315288 -38.66033847277658 -0.005389193634536382
1652496313.542308 -4.542405683848449 -38.86243282497402 0.0011969404185279142
1652496313.9424775 -4.9265762060213305 -38.999283932548735 -0.010456643936894217
1652496314.3424053 -5.3618327615923675 -39.01943084769558 -0.01990021397322922
1652496314.3424053 -5.3618327615923675 -39.01943084769558 -0.01990021397322922
1652496314.742412 -5.782628440416653 -38.934076027587196 -0.029332012852976763
1652496315.1424193 -6.214800650731973 -38.70503410663018 -0.02065665770018943
1652496315.942357 -6.918283528218597 -38.04236392893586 -0.009937197199262726
1652496316.3422828 -7.092565418179567 -37.57302820749181 -0.016284445483847276
1652496316.3422828 -7.092565418179567 -37.57302820749181 -0.016284445483847276
1652496317.9433897 -7.176637596860482 -35.190396741587456 0.01398835587183378
1652496319.5434294 -6.87541672253569 -33.054969117093975 0.030445941603655324
1652496319.942156 -6.67452068727483 -32.529508840913806 0.030705991886262107
1652496320.7421248 -6.177387478952174 -31.53106361546522 0.0313599889177244
1652496321.142194 -5.926342672137897 -31.087934777483092 0.026556978430230416
1652496321.142194 -5.926342672137897 -31.087934777483092 0.026556978430230416
1652496321.5422175 -5.651388154696318 -30.636721604590647 0.03646952673740733
1652496321.9422178 -5.332563851353557 -30.185713899353264 0.040720730584549725
1652496322.3421834 -4.980675095067313 -29.699694809212936 0.045447879554868675
1652496322.742197 -4.644834791738978 -29.239499582709822 0.053211559496755045
1652496323.1422298 -4.363607733399904 -28.77852195346084 0.05889518371646729
1652496323.5421684 -4.110324671196661 -28.316330367744044 0.06234000872898965
1652496323.9421813 -3.893675887529824 -27.85213065054747 0.0522339271172263
1652496324.7421553 -3.579535140109595 -26.859900798380654 0.05295904588404132
1652496325.142146 -3.482614769611474 -26.34707688379199 0.04648037529694732
1652496326.7429075 -3.6851531625274 -24.06963037167964 0.062299372557261645
1652496327.143051 -3.8863765703353916 -23.501572505699812 0.05607529091415886
1652496327.5432162 -4.13332691104897 -22.949163037241615 0.056169452521601715
1652496327.943287 -4.416735417071237 -22.449771770859165 0.04630737877336599
1652496328.3420534 -4.74172556588859 -21.966819402215048 0.044601800670621694
1652496329.1435788 -5.49369103302043 -21.110840632932174 0.03658363602212067
1652496329.946783 -6.379593432237267 -20.31678140811383 0.05602218145077831
1652496330.3466578 -6.882373147428552 -19.94104078632689 0.07014579412530397
1652496330.7441406 -7.4177895921368915 -19.573471550166037 0.08161602647952254
1652496331.142885 -7.871896373725228 -19.26578123382593 0.05615863464485349
1652496331.5417035 -8.361536676378776 -18.96326285808922 0.03364605797789416
1652496331.941776 -8.905485154307115 -18.66506789687638 0.06710398808505941
1652496332.3418524 -9.308529813035983 -18.420805767778045 0.0627713728730826
1652496333.1426961 -9.745600568111195 -18.18047229594868 0.0420609365004046
1652496333.5428078 -9.94883380530825 -18.00356583772922 0.031137600974687096
1652496333.9428217 -10.27203559759094 -17.597168221014343 0.03673920111039908
1652496334.342808 -10.546956281713456 -17.273234713464632 0.029177648520300192
1652496334.7428172 -10.748095472414779 -16.9543693222305 0.02724246843872491
1652496336.3424125 -11.01081378507252 -15.65259131751496 0.02573125194692788
1652496337.9433422 -9.662671839289604 -15.018764859339626 0.051589089465440996
1652496338.3445656 -9.124740266095007 -15.193657530833528 0.04139685563529316
1652496338.7434309 -8.583503242084804 -15.399936444553724 0.04355359985556995
1652496339.143423 -7.997711049113211 -15.70291997559497 0.07379654569322364
1652496339.5434272 -7.457450474013828 -16.012700140358067 0.08089256400654804
1652496339.943476 -6.98114308157882 -16.338523808776237 0.05015209459047304
1652496340.7434323 -6.000369906003412 -17.03935974663472 0.04701316188993604
1652496341.9433222 -4.892002761594533 -18.005441776185492 0.03912839993240402
1652496342.3433094 -4.501837621876369 -18.32968624075215 0.04101599394917693
1652496342.3433094 -4.501837621876369 -18.32968624075215 0.04101599394917693
1652496342.7434294 -4.171338599653192 -18.59624273023567 0.04472896658084152
1652496343.1434605 -3.8072095325805884 -18.832270453312205 0.06079689508565744
1652496343.5435884 -3.4884652438007815 -19.05506920993221 0.07114673557095363
1652496343.9435763 -3.1514686305582043 -19.242268097948912 0.08245414263261064
1652496344.7436085 -2.4359884571007453 -19.527176628621934 0.08798801434239328
1652496345.1436033 -2.072352834568288 -19.632028583244146 0.09278494120364972
1652496345.5435688 -1.7076349132901103 -19.700340720014804 0.0919328357601748
1652496345.9435098 -1.242562622195063 -19.72951213450461 0.08665981167775555
1652496346.3434968 -0.7577640339607203 -19.7255194152344 0.08624317177004209
1652496347.5442405 0.616985727964038 -19.395806825072253 0.0962714582586422
1652496347.5442405 0.616985727964038 -19.395806825072253 0.0962714582586422
1652496347.9441504 1.030876891053329 -19.18147515898937 0.11037382613014313
1652496348.3447957 1.2521189629993223 -19.078483785546748 0.11496512999298653
1652496350.344049 2.816676132726795 -16.594109208945643 0.13749250122634826
1652496350.7440753 3.022456097997658 -16.050872519813822 0.14029266892435444
